# .PCD v0.7 - Point Cloud Data file format
VERSION 0.7
FIELDS x y z
SIZE 4 4 4
TYPE F F F
COUNT 1 1 1
WIDTH 1994
HEIGHT 1
VIEWPOINT 0 0 0 1 0 0 0
POINTS 1994
DATA ascii
-2.5961165 2.3663659 11.358272
-2.7871068 5 7.6447315
-1.1950569 8 5.7150497
-7.1668668 -4.3393397 0
6.2819166 0.98975921 10
-2.4415402 1.7295394 12.818602
-6.0543904 -8 9.8516998
4.2102714 5 6.4397249
6.7070274 -8 7.1439128
8 -7.5587873 1.0436108
-3.0700717 8 2.4240465
-8 6.0471573 5.8106508
-4.3935785 -5 1.6625812
-8 -6.6345396 5.6746745
0.65234691 -5 1.9685965
6.0092525 -8 3.797646
-3.4908614 -3.6235659 10
-8 1.1915178 5.7522669
-3.9028499 -8 6.9401941
-6.7809362 6.28372 10
2.2765446 -5.5388393 10
0.21740437 6.4848099 10
-8 3.2006142 2.3007567
-5.6951642 -8 5.9060507
6.0705719 8 6.2838135
-2.8128114 5 4.1532302
2.8877087 -8 6.8854656
-3.9223175 8 5.1014061
-5.6303425 8 8.5028896
-8 6.4019976 8.990428
1.5885894 6.1130447 0
8 3.4827404 5.6686707
7.154676 -8 6.9329081
8 5.9028006 3.6462183
3.9334314 -7.4277344 10
8 -5.7405801 9.705101
-3.3372476 -3.686233 10
1.2119756 5.3551474 10
8 7.8310852 5.761622
-1.2740633 8 0.0089257956
-5.5091238 1.6591074 10
8 -6.4432235 8.5098228
1.3598146 8 9.799612
4.8109732 -7.2546005 0
3.8652108 5 0.21226138
-7.6133776 -3.1828222 0
-4.048964 1.9788043 10
8 -3.846034 1.6401718
-4.6657457 8 6.9186521
-8 7.3697495 0.61343509
8 -7.048367 5.1756711
4.8150764 -5.6395154 0
5 -3.1376011 2.8581674
-3.7293615 -5 1.4392416
7.4154286 4.4345202 0
4.4726973 8 6.9632764
-3.9173255 -8 6.0284653
-2.2639396 5.4966817 10
5 0.59377038 4.8339
-6.1591063 -1.7466426 0
-8 1.0457944 9.8393621
-2.4215274 -8 6.6308393
1.1857607 8 4.4660611
0.73016715 2.3541074 14.35288
-5 3.0594654 2.7121451
-4.9250784 -5 2.220315
8 -1.5953979 2.5438666
2.3907163 -8 2.6287787
-5 -0.56546021 4.212162
-8 -1.0810773 2.5874021
-5.5615683 6.3677788 10
-1.9437664 5 2.1502342
7.7717428 8 4.7519965
5.6145096 -8 8.3366947
-1.3181994 2.2874618 13.846618
5 3.4184966 5.9212871
3.0952301 -8 0.1730682
-5 -3.4226017 4.0918102
6.8735142 8 8.7130556
-7.7651439 4.3827333 10
8 1.8550539 9.8756285
5 -0.035129547 0.40303218
8 -5.5861769 3.277853
8 -5.8323669 2.2693381
-5 1.1535584 2.3146105
8 1.6602402 2.4978659
2.1557133 8 2.9566126
0.74235082 -7.4997621 10
8 1.6040113 8.245472
-5.5887542 -8 9.3640451
-2.9119415 8 4.7753701
3.0668437 8 4.2151642
-7.1903667 -5.7699265 10
1.6566637 -5.869175 0
8 -3.1646259 7.4354391
5.266408 -3.2408943 0
3.0340652 5 2.343699
-3.7919884 8 7.5291276
-3.1670666 -8 4.1177878
0.017533779 4.1606617 8
-0.25631654 -5 1.0886517
-8 7.6717219 3.3988321
8 2.3852043 5.6351233
-5 -1.1102402 0.42741346
-0.21299815 -5 2.2321277
7.0547428 8 9.0247221
7.4092383 -6.1059752 10
1.2534862 -1.2981763 16.22489
-1.0553401 -6.7272682 10
8 2.9369822 6.1601553
0.35009876 0.63870573 19.329796
1.3542609 8 4.6572804
-7.2695084 -5.242363 10
6.8123846 -8 7.0933471
8 2.3610544 3.9795969
-5.8157363 -1.6318455 10
4.2902055 5 0.48962748
-5 3.1905673 7.1606627
1.8567328 -8 6.1051779
-1.299493 2.338562 13.75733
8 0.78447533 0.61895078
-2.1161964 6.7226391 10
-8 -3.6043537 2.3239493
-3.648205 -4.2214413 10
1.8152277 -4.8288741 10
4.1155019 5 7.6092706
8 6.2390394 0.52608609
-8 0.46025896 7.2436819
-2.7409971 -0.77853203 8
4.6399946 -1.6316475 10
-1.8152601 -8 9.5191269
5.1405053 -6.5277023 10
2.4163599 -2.8527315 10.681564
-0.38493085 3.7473423 8
-1.7109134 -5 1.5831165
-8 0.85277915 7.4632921
5.3740187 -8 1.4359683
-1.7978537 -8 4.1152854
2.6027644 5 0.80602449
8 -7.6831403 3.5004148
-4.4878297 5 6.3728585
6.5777664 7.7970166 0
-5 2.9387622 2.9826303
0.81583381 5 2.6916142
6.0864744 -8 4.854238
-3.3759716 0.0040080547 8
-1.0807501 -1.2257723 16.743027
-5.4904647 7.9359441 10
-4.5810671 2.8760066 10
-0.0016407967 -2.9168479 8
-8 2.928791 0.88261724
1.9611206 3.7606034 8
-8 5.7535295 5.0181365
0.83202195 7.2257271 10
-5 -0.44424486 2.918644
0.85095501 -0.058850765 8
2.1921649 -0.21934068 15.106359
8 -0.22387886 2.1026056
8 -7.3090534 3.3053005
0.64638782 2.9584963 12.695436
-0.38468933 -6.5242643 10
6.9671931 1.9810286 0
1.0303559 -0.25138631 18.371611
4.679256 -7.6600995 0
-1.6139894 -5 4.1067367
6.9220281 -2.8887 0
3.4910514 -1.1311952 10.862146
-5.5314026 8 8.8611012
-0.57695818 -5 5.2035284
3.2551031 5 0.23322989
-1.7620689 -8 5.9594417
0.63283515 -1.8864578 15.730485
-2.5450349 -5 3.2727361
5.4344392 8 8.1756477
3.8594594 2.37801 10
-3.9566152 6.6541505 0
4.3669395 -8 0.35436508
-5 1.8150483 5.7114258
8 -0.28608441 9.4117785
-0.74108386 -4.7135043 8
5 0.60684013 4.9353018
-4.9192514 -8 2.3325553
-2.6029878 -1.9589958 8
-6.1959219 -8 5.0581379
-8 -0.94295573 7.0505686
7.9947157 8 9.493866
-8 -7.5915046 3.3845866
-0.74378049 0.0059433877 8
8 2.8768301 5.6593504
-2.6348104 8 3.4455247
4.6704769 8 4.7246218
-1.7070848 1.2663984 15.304636
-1.4704247 -5 4.5019436
8 4.32687 4.4690266
7.0064788 8 1.9539601
-3.6736917 -3.7794468 8
-1.6141869 -2.2720189 8
-8 -7.7786055 2.769275
8 -1.5537188 6.1614265
4.3331747 8 9.8943291
-6.5093379 4.1051908 0
5 4.1701889 2.1608191
-7.5767193 -6.3461618 10
8 -0.23298192 7.9687743
1.4039721 -8 9.0756779
-4.4024181 1.0929267 10
1.1498219 8 1.1655319
8 6.6430464 5.1370459
8 -6.0984907 4.5963988
4.5375886 -8 7.1313014
-8 -2.2197299 5.5442615
-6.8955688 4.1117506 10
1.5720077 -2.54336 8
-8 -7.6678228 2.069629
0.53200221 -5 4.1315713
-0.19389439 -8 1.9639361
7.765686 -0.43900296 0
-8 1.39631 2.1343482
8 7.8734369 7.69277
-5 -2.0251284 7.1419001
-1.1705599 -4.7963753 8
8 -7.0265117 3.997977
2.5664165 8 3.5185277
2.1739225 -1.8921639 8
-8 -0.8195188 5.6054688
-8 0.38145638 2.0660448
0.32593873 2.9193389 12.994033
-5.1577015 -5.9815927 10
8 4.000246 3.9662051
2.4947324 8 4.426198
0.40026617 -3.725328 8
-0.26899725 0.1407427 20
-8 4.7840419 3.293905
8 0.23074055 0.69801122
3.7519534 -8 3.2463276
-4.4992914 5 4.7724771
5.5224524 6.9329095 10
-0.13567638 8 4.3428526
0.094758987 5 7.5667124
-7.6617479 1.5526249 0
-8 -7.5073214 4.8376412
0.87348104 -5 7.9598618
-8 2.7891331 1.1993951
-1.4743946 -0.27204779 17.131138
-3.2264743 -5 0.53870249
3.1488566 3.6228273 10
-6.8279223 -8 1.0840375
-8 -1.5914608 6.2168245
-2.450068 2.0200028 8
-5.8926611 8 8.1200256
6.2294321 -8 9.0519257
5.3831797 0.3461535 10
4.3146591 2.9321947 10
0.1730473 7.7633801 0
-8 2.5522408 0.024187295
-3.7886138 5 4.763577
-5.8148565 -8 7.124598
6.8154182 5.351429 0
2.2194853 -8 3.6041579
0.62178814 1.7015189 16.246544
-6.928165 -3.6194229 0
1.358954 -7.48667 0
2.6499329 0.96743703 13.316795
-8 6.4458704 2.6573448
-6.9938765 -8 4.1894188
-3.9468837 -8 3.184242
0.14976931 -3.5171609 8
2.5970733 -5 1.0568061
4.4104757 -3.0964017 8
5.5910792 0.099592686 0
-5 -3.9290218 7.8831339
-1.9546806 -5 3.7955341
8 -1.9352438 3.2822671
-4.9895306 0.65101075 8
0.38424775 2.1593409 15.105812
7.2534695 1.4658986 0
1.5448351 -0.81488806 16.400772
-6.7506819 3.9899416 0
-1.5299661 0.69692361 16.580683
-2.1387048 5.9926462 0
7.2329278 -2.5826049 10
5.689045 -8 4.8231912
2.2123466 8 0.33136904
-2.5718594 5.8756471 10
1.9284984 5.194118 10
3.4520178 8 8.5845146
1.6993721 -1.5099939 14.900715
1.6269538 7.1897526 10
5.6421118 5.7767839 0
-0.77407998 -1.8328348 15.700268
-5.7958202 8 2.5771253
-1.0544263 -8 9.2743454
0.47618508 8 7.4925036
-5 -2.688061 2.645143
-0.86106068 4.3118358 10
-6.7833138 6.4352293 10
-5 1.8257747 1.1074319
-4.7680049 -5.0000005 0.54569077
-2.7295022 7.9474025 10
-3.1508365 3.0776429 8
7.2467213 1.7023098 0
0.051058643 -1.8566382 16.09655
-4.2789388 -8 3.4941812
1.1181669 -1.6425157 15.739022
-8 3.852807 2.1640415
-1.6488417 5 5.6462607
3.6047232 5 3.0567234
3.3875525 -1.6134837 10.684591
-5 0.72036314 6.5381393
-5 0.40837812 7.233315
5.7629061 -2.044462 10
2.2352624 7.7683721 0
8 -4.9044876 3.5958283
0.28527308 4.2513876 8
-5 1.1496787 4.8034806
-6.68822 -8 5.4079247
2.0528064 2.7557631 11.526097
4.3550377 2.2972627 8
-0.9104073 6.2850237 10
-0.049462199 5 0.77118599
-3.4082012 0.80065274 11.366913
7.0631409 -8 3.1555438
0.22118783 4.9990983 10
-5.9869595 3.0297189 0
8 3.0664444 4.1094246
-4.0653691 5 6.5936341
-5 -4.5269709 2.9061465
-0.99762583 5 0.25541729
1.0003525 -8 3.4627316
2.229306 1.5204194 13.656906
5.6541338 3.0528345 0
-5.0912209 -8 5.7524543
-0.71476412 -6.3805923 10
4.9498773 -8 9.9361086
0.083886385 8 2.5467272
1.8849845 -0.47742248 8
5 -1.3256587 0.98740697
-1.9462734 4.4712911 8
1.301319 5 0.92495191
-5.9390697 1.8342351 0
3.0338764 8 3.799262
-1.1203654 5 0.99246103
8 -2.4565101 4.2143126
-8 6.5050554 0.52970159
2.7155612 5.660327 10
2.5907865 5 2.9975498
5.4230609 5.4830971 10
-0.77898741 -3.9896274 8
3.955627 -8 0.0093099829
-1.3236468 5 0.64720362
2.8967204 -8 9.3430634
3.0151041 2.5519106 10.116192
1.7169731 5.6074181 0
5 -0.53671145 1.6039649
3.0389023 4.4107914 10
-1.7749295 -8 7.3707581
8 6.1377068 6.3052282
-6.4833179 -8 8.7566681
-4.5835657 -4.0725479 8
-0.225934 5 7.1369362
-4.8145027 -5 2.8005848
-8 -6.4885449 7.9446487
3.2215691 5 1.4680037
8 -6.9256058 0.61143368
7.1362972 1.8848486 10
6.9688573 8 3.7284398
-4.6837149 -5 7.0976367
8 -2.5869818 2.2000973
4.358407 8 8.9774418
-7.8833942 8 3.5135543
5 -1.1950636 7.1809993
-7.1061039 -8 9.4712849
0.019538641 -4.6615577 10
4.5345993 -5 3.106904
-1.9204619 3.413923 10.201907
-3.1024842 2.5430417 10
-1.3866677 8 0.9383285
7.4262071 -0.49079871 10
-2.2612228 5 1.3302244
-6.7062163 -5.8400311 0
3.7833769 -5 6.3909264
4.1258478 -8 2.4026895
-8 -4.4222031 7.3747973
1.6143482 -8 1.9014316
-4.1458797 -3.1505835 10
6.7349949 -0.32463634 0
1.6458924 4.5990667 10
5 -0.16104954 4.0089126
0.34260738 -3.5661564 11.165833
-6.2484384 -3.1751728 0
7.2518444 3.3376532 10
5 3.6958599 4.120378
5.3552313 8 4.3131757
0.6952002 -0.0096195582 19.429379
-1.0781314 8 1.8826944
-0.51984715 1.656312 16.425503
-3.3553414 0.21914852 8
-8 -1.8232211 5.4046845
8 7.4564657 5.7429371
5 0.82635045 0.32203707
6.9291515 8 1.9879997
5 0.39200747 5.6609974
8 1.9826465 6.957572
4.0916266 5 5.0722461
7.7929039 -4.5787883 0
3.4899364 4.8130198 10
6.2677174 0.32184935 10
-8 3.9953403 5.0874949
0.72659248 3.3145785 11.699089
5.3059063 -7.9941978 10
7.1052651 0.027522802 10
6.9709387 8 5.2042575
0.88335609 -2.4770846 13.913525
0.87872535 8 1.457575
-2.457449 -5.5963039 0
-4.209775 -0.97724026 10
2.2155764 4.2870045 10
8 5.6336641 9.7464151
-7.6355972 -2.5142937 10
5 -3.5740836 6.0686197
5 -3.6391687 0.96356875
-4.1185503 6.5516315 0
-2.5480742 -2.3651066 11.439558
0.78216368 -3.2461567 11.834418
-1.6326989 -8 9.6483631
8 -0.86787891 0.36738008
-6.0287342 -4.9958196 0
5 4.1971722 1.6584988
-0.69600201 -5 3.9286034
-4.6276655 0.79657423 8
3.3872414 -8 0.045579735
-1.461537 -3.0719976 11.64951
0.17128181 8 7.4388723
4.3748417 -4.2866554 8
-2.6640635 3.2462218 10
4.5897675 5 5.8041134
-2.8610735 -3.8990588 8
5 0.52748799 7.5847335
-7.6242433 -3.9774213 0
8 5.1645966 0.51080197
3.9419308 -5.7290888 0
-6.0289698 -4.3429337 0
5 4.8427372 7.3090081
-3.545085 3.4079974 10
7.843874 2.0022542 10
-8 -5.9939532 2.5660169
-6.1968799 -8 2.4202132
0.72297722 -3.2003045 11.972786
-0.10149264 -8 5.8513908
-8 5.4739575 7.8932352
-8 -1.9374244 6.0878668
-6.1515622 7.8023148 10
3.2087476 -4.0870075 8
-2.2212927 -2.2000206 8
0.084989309 -5 7.5166321
1.5621383 2.2536678 13.584991
-2.2309673 -3.3119187 10
-5 -1.3146914 7.6921911
-1.2829764 -8 5.5092521
-4.1809382 5.9497538 10
-2.9590251 -8 6.3751059
2.3325157 -5 1.6162333
5 -2.7498393 6.2506194
0.42686284 2.983736 12.752977
-6.1382103 -1.4554515 0
-2.1450319 4.3497882 10
-5.5988684 4.3687639 10
-6.9054847 6.6566467 10
-4.3449755 -8 4.7927279
-3.9887486 8 8.8557596
8 5.6376982 2.1625228
-8 6.7435894 6.3839808
3.2210224 8 4.0375004
3.3126128 8 7.2693501
-3.7322235 8 5.9894533
1.2809861 -3.119781 11.75944
4.754621 6.7004285 10
-1.8937893 -7.8036647 10
7.286026 3.0342071 0
-8 3.3682647 9.9375801
1.7870345 5 3.2516623
-7.4585652 -8 7.5992947
-8 -2.7995105 3.0464413
8 1.4645309 2.347266
8 4.8971543 9.4348927
-8 -0.061250925 6.1937814
8 3.7487655 9.5271873
6.8689427 3.4959834 0
-2.7717304 8 9.5415668
8 3.4006824 6.551549
-6.850502 0.06046319 10
3.0639 1.5801672 11.50999
2.3521376 -1.9025571 12.781604
-1.0277082 -2.3629308 8
-6.0635643 8 1.915062
-5.1058311 5.5877805 10
7.1846056 -8 6.3145914
-8 7.6306067 9.8003883
-1.8511763 8 6.613986
-6.9459472 8 0.24691343
-5.9776917 4.5804501 10
-1.5171672 0.43395844 16.916683
-5 3.0687237 5.0508289
3.4836175 -0.30342478 11.379793
-8 -6.5234389 1.9489943
4.9679136 -8 4.1410785
8 0.74804401 8.4547338
1.4601345 0.72279185 16.74749
3.9503007 0.052797835 10.129426
7.3554888 -8 5.3159513
-8 -4.1838684 7.7240376
-6.3155627 -2.2490385 0
4.0648575 8 9.8199444
-1.1991878 5 7.1192942
8 1.0617213 6.3924899
6.6667175 -8 0.021160871
-4.5870724 8 5.8071489
0.61064148 -8 5.5240021
4.9139814 4.9730654 8
-8 -6.1621208 3.4834399
1.171695 -8 0.3392525
-6.137177 2.9718778 0
2.1195686 0.38033217 15.246472
-1.1993816 -3.2408061 11.546889
1.6418159 4.9629068 10
-3.5819464 -5 7.731442
2.6930194 -5 4.8166828
-5.5644321 3.5913203 10
4.6303377 -5.5465565 10
3.8460627 -5.4996667 10
8 -5.6764717 4.4270363
8 7.4595213 8.47474
-2.5575926 -5 1.5532689
-8 0.05826354 5.403429
-2.9928217 -8 7.1236277
5.2526283 -8 4.0607543
5.3176417 -8 2.0038505
-1.2920007 -1.1097802 16.518299
8 5.372159 0.97606277
-6.4405918 -1.2074246 0
-7.9351063 -4.3424087 0
-0.11655027 -1.0516124 18.379848
7.9555173 -0.94967508 0
-7.220437 -6.8241982 0
-0.13542557 8 6.720284
-3.024195 0.62655735 8
7.4986739 -2.4080138 10
-1.1901308 -2.8846028 12.440285
-4.5464735 5.5696082 0
8 -1.2800722 9.6469316
0.99725306 -8 3.6548827
-8 -1.7955374 5.3809505
4.0062714 -2.2190084 8
8 0.32251167 3.9466412
-5.018877 8 2.0037744
-5 2.837574 4.3659091
-7.8020854 -6.0117331 0
-1.5559266 -4.2653852 9.999999
5.1011524 2.4578156 0
-5.6317873 8 2.2824788
-2.8531642 8 0.82404554
4.7223015 5 7.4955173
8 4.9284439 8.4599247
1.6449432 -5.5349545 10
-8 3.5546579 9.3477869
-8 -3.1003335 7.9164028
-1.7968223 5.5880232 0
-1.2516375 8 8.9537992
8 6.5648394 8.2646551
0.0032653809 8 8.1696644
7.3109651 -0.84969002 0
-5.2039304 2.6536725 10
5.8428421 -6.7600536 10
-0.08774209 -8 1.2023501
7.1451592 -1.0314157 10
-8 -0.034300327 2.2386529
5.5256653 8 9.0361557
-0.53008866 -0.4239403 19.476883
-2.0189033 -6.6179643 0
-0.32245231 8 3.4118974
-8 -1.692672 3.7593083
5.1955962 1.0229821 0
-1.9632092 5 0.25649694
2.5507233 4.5296149 10
-8 4.9087214 7.6408167
-1.8241682 2.881551 11.657435
-8 1.8866254 2.0499701
7.16747 8 9.8953781
-0.83745694 -8 1.4034652
-1.4492706 1.6140807 15.215212
-5.7304339 2.794606 0
-1.1496353 -5 5.1857643
-1.4475247 2.7556705 12.528364
-2.9712031 -0.2260225 12.898689
2.4355392 -1.6029761 8
2.4801366 -5 3.802453
0.69781518 -8 0.968624
5.0792031 -7.5631652 0
-4.0122728 2.2054353 10
-8 -6.0694513 7.0040331
0.56768823 -4.10853 10
6.4890814 2.6819441 0
-3.044703 5 5.4548836
5 -4.230576 2.1160772
-5.9983859 7.2057056 0
-8 -7.1818228 9.5555611
5.5667329 -3.6310716 0
7.1656137 8 2.8763337
-6.6650972 -8 8.8214388
6.6669559 3.0241408 0
-0.6576733 2.0849042 15.127698
-1.5046983 0.56393719 16.800323
-2.8203042 -8 7.5046711
5 -0.43214226 1.6787499
-8 4.5062895 9.758729
5 -4.5837564 0.13334818
-3.1700025 5 5.849978
-7.0288696 -5.1603141 10
7.8451066 8 7.2642889
7.6438417 -3.3266487 10
-0.65352392 -0.52390242 19.013165
4.7428379 -1.7651597 8
-8 -6.814158 3.2059696
0.38883397 1.4929951 16.984671
5.5043216 8 7.5158539
-1.7516029 -8 3.5595436
5 -3.4640379 6.1724758
8 -7.6595898 6.4795151
5 -4.0715189 4.8915901
-1.0774013 5 2.1036828
-0.98510432 -5 2.8389688
-1.3929452 -5 7.3707638
-6.9446201 -7.0885153 0
-0.96384442 1.022123 17.411976
-3.5351944 8 2.8700647
-8 7.2542386 7.7240171
-2.8976874 -0.033146728 13.146229
1.1185222 -5 7.8086395
5 -4.345808 0.68139786
-8 -4.4597468 1.8567518
1.7022777 0.92485142 15.848031
8 -7.7960472 2.8083806
-6.6909547 7.7772841 0
5.7925482 -0.14403933 0
-7.1568174 5.9483757 0
-7.8652616 2.463577 0
-6.2820444 8 4.8087854
-2.6008015 -8 7.8311591
1.3941954 -8 2.8480952
8 3.2234449 3.6606474
-5 -0.5801537 5.3163195
-3.2971087 8 0.909428
0.62687016 8 4.2173862
0.16901657 5 3.3889532
8 -2.6239648 8.2687283
-1.7809768 -5 1.2717934
0.75914794 2.3618937 14.313889
6.140132 -8 4.2109485
-2.8978086 1.1392472 12.454184
-3.9331453 0.94409513 10
1.6504887 -5 1.1376543
-8 4.0367894 0.68593037
-1.9403915 -5 5.5084062
8 -4.2899637 6.1086812
-2.0283244 -8 3.6401336
1.9797163 -5 0.8918829
8 -3.1404705 6.1100793
-5.3830132 -5.9650121 10
-0.26130486 8 5.5827351
6.5378699 -8 6.4093547
-3.1254816 3.3307955 10
-3.0315309 -2.3618102 10.399664
-2.7028749 5 3.2953019
-5.6727157 -7.1879091 0
5 3.1791983 7.65171
6.0161123 0.95476675 0
-0.64762163 -5 3.8385661
-4.2433319 -5.8975029 10
4.7560825 -4.3582182 8
5.8776603 -8 1.4927523
7.4884048 -1.1248674 10
7.1365604 -8 2.8596978
-8 -6.8766751 2.1377242
7.1780348 3.2269201 0
7.8112121 8 3.8203967
-4.0147495 -8 9.3233986
-5 -4.5676541 1.3231606
5 0.87028068 7.8478494
0.89331329 6.4435296 0
-7.6440687 4.6710258 0
0.88244534 5 4.7659612
-2.370713 -3.0343997 10.397395
5 -3.6977034 4.9510851
-6.5890317 -8 2.9487319
2.0246153 -5.5540848 10
-3.0224195 3.0031943 10
-8 -1.7165124 6.0545249
3.5418377 -8 1.774264
1.3848714 1.0254216 16.479465
3.8020687 6.9402857 10
2.2787971 -5 5.853148
5 0.49184617 7.0932546
3.105691 2.6782804 8
5.9319134 -8 7.961133
5 3.3222618 3.1986327
0.66485631 5 5.5570536
5 -0.95807266 2.634387
7.4099317 -4.3129506 0
3.6134632 -8 3.0171292
0.68002105 -3.830493 10.259202
1.0278542 8 3.8661032
4.3048387 8 5.3491611
5 -4.340251 2.9085257
0.65789127 5 4.571578
-8 -6.8815956 4.1174779
-0.19348629 -3.5135231 11.345619
-4.8650913 -5 1.6096873
-1.4508662 8 2.931035
5.8642941 -8 6.6474433
8 -1.3116741 8.3419628
4.9546013 0.67123687 10
-3.045614 4.1278667 8
-5.0792189 -0.14367309 0
8 4.2219152 8.3187904
8 7.2542467 9.8953943
4.3623018 -5 1.9612088
-6.2231364 5.6430635 0
8 -0.16732472 6.1125536
4.9348488 -5.6990557 0
8 -1.8334067 6.6555176
4.6552143 8 1.2478316
-6.2607341 1.920624 0
-5 -0.76903391 5.5177116
-7.0293093 -6.3949885 10
-8 -7.3452773 6.3692894
-8 -3.5348654 4.4014511
7.6291456 -8 7.7309723
-6.3578134 -8 5.1446009
-5 3.5491428 5.9978027
-0.32496345 3.6392217 8
-7.4406595 -7.5128493 0
-3.7417943 0.83358896 10.414968
-8 6.39644 8.5144663
2.7608349 -7.5070772 10
-6.7402639 6.0939169 0
-1.6599555 7.566155 0
-1.2701912 -8 0.53447556
2.1150906 -8 7.7116642
0.88471651 -4.4767914 8
0.42548701 2.1355004 15.148932
-3.7022231 5 0.076381743
3.983403 5 4.8117909
8 -7.4126673 3.06267
6.3623261 7.20087 0
-3.0112281 -8 5.2947001
-3.6574452 3.1281133 10
8 7.387517 0.72642213
-3.4145298 -7.6977863 0
-1.4963515 -0.09283445 17.14422
8 5.7487307 2.6550355
5.0000005 -2.3362181 6.4000049
-2.3011513 -5 5.5314531
-1.2342052 -1.6518873 8
-8 7.3604355 7.6329784
-4.8244901 7.1557722 10
8 -7.9165211 6.8268046
-4.621624 -7.8078961 10
7.8022461 8 6.4070282
-8 -6.6349206 8.8295517
-8 -0.19578767 5.841363
4.7914453 8 5.7783694
-7.8015566 -7.1454258 0
-8 -5.4313078 1.4802004
-4.6974244 -8 2.0445912
-8 -3.3423142 4.6510034
-3.2742214 4.7006721 10
5.5590186 8 6.0752802
-6.4836597 -0.68072867 10
3.812592 -4.1727695 10
-4.9667463 8 7.0714478
7.8640485 5.3025527 10
1.985072 -0.2077585 15.703615
-5 2.3012013 6.8104649
-1.5442426 5 1.371231
2.2180338 -1.9237032 13.007746
3.037147 -7.8079376 10
-8 -2.7007365 0.070612319
-5.7987432 8 6.0880628
-2.7907305 4.6566648 8
4.984087 3.5394194 10
5 2.084938 1.1962304
2.4323797 -3.0164158 10.318642
-5.8067369 6.8533068 0
4.3377562 -7.4519262 10
3.5561039 -8 5.9837537
6.1294088 -8 1.5631557
-1.6585875 -4.6146526 8
2.3305283 -2.2763133 8
7.0804005 -3.6807923 0
0.91561162 0.68214047 18.150192
-5.6734223 -4.9985514 0
-7.1764412 0.91440201 10
8 0.3462137 6.1854424
-6.9199491 -5.7103844 0
-0.14107656 -2.2382357 8
0.74946761 -6.8243856 10
-5 0.68324041 6.2628083
8 -6.6276827 5.3341384
6.6712885 -3.9508743 10
-0.47595692 2.4769692 8
-6.9699006 -8 0.39526862
-8 2.2898979 1.2367474
-6.5921516 8 1.5450937
0.35224915 -0.73184216 8
1.5860467 2.6547055 12.526345
-8 1.6643724 7.6461053
8 -6.9773588 4.9813128
-5.8157735 -5.6705899 10
6.2500296 8 5.6540594
-1.3795128 -4.0886502 8
2.4057875 8 4.999373
-0.21379018 -7.8509312 10
8 5.30231 6.3342633
-0.27479064 3.9063497 10.216393
5 1.1314164 4.587636
-5.6655521 2.4077995 10
-8 -4.3179317 9.9999599
-1.9665911 -8 4.5454135
8 -3.6658041 5.1689539
5 -1.3090746 3.0689588
8 3.3793612 7.5065117
3.8315265 -6.0832863 10
3.3165097 3.3501427 10
1.7602844 -0.88754994 8
-8 5.5287776 3.9819713
6.3766394 8 2.3028154
-7.5686121 -4.2287822 10
2.7546914 7.0587893 0
-0.59620476 -1.925547 15.620115
-8 3.1809337 2.7086575
7.9012499 1.4420521 0
-5.5965233 5.2817745 10
3.481401 -5.0212722 10
-8 6.9212222 6.2463684
-3.6095858 8 4.2532258
-4.1463189 -8 1.8923798
7.0945354 2.9778771 10
3.6044035 8 1.6605145
0.84209162 3.2448916 11.807796
8 -6.7094717 4.3126693
7.0704532 -8 9.1904888
0.77914476 6.0007477 0
-1.0555341 -8 1.5810509
8 3.6909065 1.9041076
-5.2244873 -7.283452 0
-1.1145205 -2.2496712 14.238726
5.2191925 0.37655675 0
-1.3655937 0.29147619 8
-5.5549383 2.5223005 10
-8 -6.6855125 2.2506139
2.756197 7.4942999 10
-4.3972216 2.9867477 10
8 6.2225714 0.64415824
2.0942349 8 3.912704
8 0.0049408078 5.7644916
-3.8061972 8 7.0376186
-8 -5.2438178 1.8947599
-1.0572945 -1.0436593 8
6.6101789 1.7620568 0
0.10894537 -6.3001332 0
-2.6667652 -5 3.2812166
-5.1399021 -8 1.0569204
0.37702662 -3.0278468 12.657663
-5.0000005 -4.5856652 0.90079784
-1.143898 8 3.6515355
-0.015549928 5 7.1807218
1.225273 6.6361661 0
-6.7762613 8 5.1779642
-8 5.7056956 4.6923456
-8 -5.9197578 9.1709986
-1.5680363 -8 2.2167227
-0.54351878 8 0.93076766
5.1733603 2.1007359 10
-3.96556 5 4.3275666
3.1870232 1.4529954 8
5 -4.8658695 6.0348339
2.9806998 -7.8846502 10
-0.5918808 -5 2.1536303
-7.5771728 -3.1929574 9.999999
-8 7.7671046 7.7491784
-3.178133 -8 8.6956644
-3.1871281 5 2.7674191
1.0808492 5.0049734 0
6.6288614 -0.45998585 0
-0.88624424 3.9983275 10
8 -2.0206146 2.0540462
8 2.814867 4.4396768
-1.1503508 -6.7750101 0
4.5719471 3.8117073 10
3.3983912 8 2.4372053
6.1028748 8 1.3090253
-8 -1.7299612 2.093509
5.4634848 2.8857386 0
5.199646 -2.4593029 0
-5 -4.7056427 6.7419434
-5 2.5385647 3.9402866
-6.8725739 4.5006433 10
2.4650249 4.7018189 8
-0.3463695 -8 3.9551284
4.3396754 5 3.2256503
-4.5212107 3.4558201 10
-4.3391056 8 6.640029
2.8329136 1.4909654 12.213664
-6.707634 -1.5148342 10
-5.0244431 -3.7435083 10
3.3015308 8 7.1229897
2.0232725 1.2226243 14.610845
-4.4986191 6.729619 0
8 2.750598 3.987602
0.3745327 -8 1.0914969
6.1003137 -0.74816942 10
5.582015 -8 0.016586045
1.8342547 0.64955652 15.829323
-6.9491067 -3.2648547 0
5 -0.69625235 0.018493995
-5.988019 6.7479711 10
3.9689746 8 4.4509325
4.6507502 5.6207037 0
6.1301918 2.1219935 10
5 2.001833 5.5193758
1.9669975 2.5630612 12.154311
-8 -4.9364934 9.3958988
-8 6.6575809 6.8978467
4.9337015 -8 0.28883398
-5 -4.4588013 0.30202818
-5 0.051515579 6.5467458
5 4.5980654 6.2210531
-7.0154967 4.8127193 10
-8 -6.8073702 5.9606085
-6.9243035 2.9925585 10
5 -1.1862863 7.413497
-8 -3.9887772 2.0553691
-6.7083879 -7.0995274 10
4.3558073 -8 0.36315745
4.117816 -3.070663 8
-8 -3.7304587 0.33404571
-0.73125052 -2.3182528 14.422516
1.1473721 -3.1494758 11.818207
-6.1126442 8 2.1272047
5.749321 -2.9823263 0
5.4575486 -8 7.9619508
4.8479686 -5.31498 0
1.1321163 -2.3091824 14.013403
6.4813576 5.9227037 0
-0.13172698 8 4.5526056
3.089051 -8 2.8264921
-7.827652 -8 1.9714959
-3.2367477 -5 5.7682133
8 -3.4254911 1.2559928
-1.5617619 -1.1832464 15.781088
-8 -0.064176321 3.5593085
-3.379302 -8 4.4869967
4.2212172 0.82384336 10
-5.9700866 2.3358185 10
6.2078238 8 1.4983499
-3.1832061 -6.0552983 10
2.7640171 -5 7.1382141
-5 -3.1512275 0.47965527
-6.5166845 3.4643633 0
5 -1.4152801 0.35984692
3.9349961 8 5.9544811
0.22913074 -5 3.3979216
-0.59648705 -8 2.2184393
-0.47068888 -1.8583814 15.92386
-5.2997532 6.8431454 0
-1.0135908 -0.072881222 18.521528
0.9831934 -8 1.752355
1.9595711 -0.76287454 15.39314
5 -2.1835585 6.1641107
5.4662905 -8 5.28757
-8 -0.94917881 3.6384892
2.1612525 -2.7444301 11.389483
4.410183 -6.1291571 0
1.3683696 -8 6.9279499
5.5510836 -3.0883224 10
-8 4.0006537 8.051878
-3.2648284 0.57203996 11.940949
-2.4355392 8 6.4962864
-8 0.16007924 0.29339513
-8 -2.7015619 6.2644711
-3.9775531 5.4163151 10
-1.2323911 3.2047105 11.603588
-7.6219645 -1.8050518 0
-5 3.2937615 3.380533
2.0694857 5 5.4174118
-4.2085562 -0.37484962 10
-0.36255896 5.5309162 10
6.1423559 -0.98505569 0
-0.80993915 -2.5832469 8
-8 6.4565487 4.2681932
8 4.4199066 1.7025163
-0.79151106 3.5040026 8
3.7938671 -3.0104842 8
-2.2287822 -5 4.8865681
3.7887292 -8 3.8996019
-5.5569763 8 4.8965788
6.2882338 8 0.30073047
-8 -5.1941729 6.868947
6.4464526 0.18841887 10
-2.2263629 1.6162218 13.50623
5.6406956 4.6934938 0
-0.19235647 0.77149051 19.148224
-2.9535513 -3.7843707 8
-5 4.2340546 7.4720631
-4.7088537 -4.5560727 10
8 -7.2754126 4.2571831
-8 -5.6722236 0.12003192
0.85271686 -8 4.7305336
3.3189464 8 6.9247937
0.90794909 -5 0.99645901
-3.6224163 7.1497717 0
-4.8015099 -5 4.9996157
-7.0142674 -3.1563182 0
5 0.99716103 6.5608745
-5 -0.51264924 0.50802135
-1.6109519 -8 0.95335031
-4.7421818 -3.4996848 10
-1.451427 6.5632682 10
-1.4390212 -2.7535002 12.54762
2.5024421 0.76793605 13.881618
3.1039734 -8 2.2646327
-1.7154528 -0.63012511 16.166777
-0.78433895 -6.4164443 10
0.42190957 4.1340246 8
-0.88439989 -5.0185657 0
-2.2029965 2.2120245 8
-2.2171001 -5 7.9350057
-5.7977428 8 6.4962769
1.171443 5 2.3164461
-7.3440728 5.4881763 0
-5 -1.9177494 4.0869308
-3.2142012 8 0.36159456
5 -3.686183 2.8360121
3.2074695 8 5.5009699
-5.7787652 -7.0836058 0
5.0157919 7.0278997 0
1.7712622 -2.7968106 8
4.4488926 0.49652129 8
8 6.1937933 7.7216592
0.37165952 -8 0.085377067
5.1632266 5.0082788 0
6.5761728 -8 5.0171976
5 2.0692875 3.8230667
0.86491251 -8 3.1099162
4.3658333 -5 6.119597
8 2.7951078 9.31528
2.2865891 -5 2.0749474
-5.808732 -0.39761758 0
5 -4.845418 2.5560861
-5 0.10164928 5.0682778
-1.2544162 0.96335495 16.868883
-1.5810554 -0.96078616 8
-3.8240762 -8 1.1645458
6.5615487 2.5242801 0
-8 -1.6896727 8.0150671
7.6295042 8 4.7804046
7.613853 4.9781804 10
8 -6.5489678 3.7329979
5 -3.5072336 3.8104479
-3.1351783 5 2.9770956
-6.6205502 -6.1581368 10
7.3524542 6.1428618 0
-5.2895226 -8 1.2913016
1.4003968 -3.2058182 8
-3.1699276 8 5.5466156
-1.6606199 5 7.3098021
-4.0708466 2.9244907 8
8 5.5011044 1.7332959
3.7348559 -1.120828 10.22996
-3.0907898 5 5.7691064
-5.6590948 8 6.6131954
-0.28293669 -2.0503697 15.473396
-0.95744658 -5 4.8715029
3.8127136 0.53047991 10.408739
-6.1406364 8 3.288476
-5 -4.366303 1.2845359
-5.1217041 8 3.1584342
-8 -1.2147305 4.8311524
-6.1932101 -3.7384334 10
-4.1159501 5 0.067690529
8 -2.0035186 8.5395985
0.10366343 4.3053761 10
-3.8611307 -0.89286977 10.063512
1.6315614 -2.6670175 8
-5 4.1495399 3.8225732
2.7239552 1.6894678 8
-8 4.8431911 9.9527893
3.7003078 7.9560013 10
-1.2912846 -8 0.23850138
8 0.038480759 4.0546741
8 6.9630785 0.73231721
-7.9643774 3.0107119 10
-0.11792743 5.2545247 10
7.5798483 3.0144362 0
2.3864555 -8 6.9589086
8 -0.72222447 7.6957827
-5 2.2832127 5.9859686
8 5.9214916 6.3487659
8 6.850503 0.88316178
8 2.5727129 2.2966778
7.8177891 8 9.48736
-0.5895195 8 6.3611741
-5.8419247 0.84688759 0
7.8378615 4.9165182 10
-2.0924137 -5.4149799 0
8 6.5487337 6.9430151
-2.1871867 7.1113563 10
5 -4.8291273 2.5397966
8 4.1953459 9.2695532
0.56957567 -2.8055208 13.172461
-8 -0.01464951 2.7189405
7.7553854 5.7710814 10
8 3.1844902 1.1010059
-3.534339 -0.091575518 11.314262
-1.3248734 -7.1922975 0
-5 3.7517602 2.7568889
-2.6867838 5.5767121 0
-4.1771784 -5 7.4801183
5 -0.85539806 1.9738607
-5 -1.8932559 5.1456923
4.9585986 -8 2.1609364
-2.6920633 -5.9715052 0
6.6966314 -8 0.011992586
-5.6484962 -0.28578937 10
-5.7849131 -5.9834957 0
-1.6368456 5 2.1811256
-4.8353233 -8 6.2934971
-0.42322683 -2.8394222 8
2.3758888 5 0.075911269
7.7673903 5.628262 0
-7.8161049 8 2.6591792
5 -0.39742076 1.7152811
-0.3469193 8 2.4287601
2.8694315 8 0.78695953
-8 -3.7079492 5.720427
-8 2.979125 1.6575795
0.33451328 3.3620963 11.729774
-1.5331173 8 9.7092018
-0.073944807 4.8730526 8
-2.7495224 5 0.87707084
-0.75253987 -4.376503 8
7.4046445 5.7474384 10
-4.2428694 5 5.116653
8 2.1702158 7.6540403
4.1088686 3.5836964 8
-6.0354919 1.8049849 0
-0.065773249 -5 1.9648075
7.9682541 7.4429355 0
1.0666132 -5.809505 0
6.5941639 7.5412025 0
4.465435 8 0.97327411
-1.743374 -4.1121101 10
8 -7.2333851 0.33544511
-4.6609039 8 5.7064877
0.82089496 -8 7.7336073
5.0606489 7.8952465 10
4.8997016 5.8142686 0
-4.957015 -8 5.9471006
-2.1132612 -8 9.1274462
-2.3352346 -5.7259979 0
8 5.5600052 1.9601464
2.0850422 -5 0.19406652
-8 -4.6137061 7.0304418
-5 3.8842022 0.33463335
6.5737844 6.6366553 10
6.5993996 -2.8822935 0
-0.2548987 -1.0441266 18.344994
-3.6219614 8 0.22864163
-8 5.3552375 2.2498972
8 3.6244559 9.3174458
-8 -3.7629833 4.1875863
-5.7049484 -3.1173434 10
8 -4.6739292 0.16364358
5 4.0417433 0.023135651
2.5558333 -5 6.1798692
3.6797948 8 2.3590617
4.3280454 5 3.3822417
-7.7157283 -3.7998571 10
-8 -1.6376119 1.9468268
8 -0.71940684 9.3555317
6.6995277 1.8996341 0
4.2402368 -8 7.7671576
-5 -0.70599437 4.7649941
2.4208355 -5 7.7545619
-4.3587465 -5 7.5566754
5 -2.5930378 1.7447917
6.2895117 6.2842569 10
4.3436146 8 3.6918962
2.4852138 -7.9951472 0
-0.54768223 0.98555887 18.195574
8 -0.95091569 6.9172196
2.4244249 -2.2524261 11.922986
-1.9363081 -0.36913988 15.778638
-2.4679575 -2.0197775 12.231251
8 -6.4891548 7.9784265
7.9576831 -0.52603567 0
-8 -3.3271616 4.5759068
-2.6415391 -5 2.10783
-6.0817637 -8 2.2451715
-1.0799841 -8 8.7243557
-6.3457685 5.7321291 0
-8 4.5161819 7.7513413
-3.2116342 7.243187 10
8 -3.1827917 7.0933561
-8 1.7363174 5.793561
1.7238141 8 3.1030631
-0.6833744 5 1.2963595
6.7898273 -0.70029092 0
8 3.7651358 3.0330224
-8 -3.242538 1.4762632
8 -1.3514576 2.1667609
8 -4.2748508 7.7382135
-2.6169491 8 4.3336916
8 -6.2982078 8.9202175
5.846611 -8 1.7216188
2.981143 1.5170231 11.83935
4.4970756 -5.2349844 10
-8 4.1312537 9.432374
-2.8459501 8 5.5567384
5 -1.5628492 5.6304007
-8 5.7120366 0.45201916
8 4.8053379 3.6084015
-8 7.7173681 1.4465295
-7.1901345 -8 8.0490608
-1.5747378 -1.5813247 15.027533
2.4061422 -8 3.6121554
-8 5.8215971 7.5889897
5.736443 -1.1633248 0
4.0685759 -5.6986232 10
-1.766325 -2.9176629 11.638325
1.1962426 -0.78115302 17.310307
0.37929034 1.8626366 8
-6.0958347 8 4.6676054
-7.8319116 -7.4465494 10
0.54779452 5.3089175 10
5.5919237 -1.4767997 10
-5 4.1885624 1.5841274
8 -7.9788289 4.1953273
3.9995863 8 2.0219402
6.5847173 -2.1307867 0
-2.4625325 5.3840809 10
1.0078335 1.3159497 8
3.601191 -2.9330995 10
-3.3631475 0.70250309 11.551418
-5 2.3853536 0.57214165
8 -2.3960135 2.0784626
0.90523863 5 4.2079782
-8 5.5309916 5.3520255
-8 -0.47458053 3.7218959
1.4678895 8 4.0980463
-2.5878382 -5 6.0625086
-3.5877104 -6.3557301 0
5 4.6354995 7.3958669
-8 3.0736639 4.4910097
3.7893641 -8 3.1477997
-0.96177596 -0.53148943 8
7.722652 0.21833146 0
4.2665815 -4.3380189 8
-5 4.4658165 6.0454798
-0.76957798 -8 4.9671941
5 4.1133385 2.1236191
7.2228012 2.2966886 0
7.4721627 -8 6.0545979
1.5028526 -8 2.4393809
-1.9664528 -1.817294 13.721727
-6.5715671 -8 7.115438
-5 -3.0170593 7.5212054
-7.288619 -8 1.0033561
1.6952777 -8 4.7602081
5 1.6983304 2.3007147
-2.9850945 -1.7488394 8
8 -5.2027473 6.26896
-1.7273797 -5 6.5290556
5 -3.878026 5.1183758
5.4442563 1.7128079 0
-6.4641562 4.1243005 0
-3.759517 4.8949528 10
-8 0.9544096 1.6417301
8 3.1621389 0.19945006
-8 7.4818459 5.5908446
-5 0.50642109 6.7369566
7.4475636 7.8425708 0
-3.5960062 -5 4.3283749
8 4.4650116 0.24603611
0.49178463 -3.2030015 12.095748
-3.8784351 8 8.0435829
8 5.6251154 9.1499596
2.3921278 5 5.5088944
-5.3481979 -8 6.9456534
2.21878 -8 7.1859198
4.6849623 -8 2.9275935
5 -0.75571924 6.9448581
5 -4.4238358 5.6124349
4.125627 8 6.4537716
-3.3677659 8 0.9204942
-0.86314559 -1.2010913 17.163086
-6.9715881 8 2.6157026
-0.11503696 -4.8628817 10
8 1.241649 6.0623183
7.3309107 8 6.2326393
-0.47462845 -6.975544 0
5 -4.5676355 2.6734023
6.8420353 7.6854696 10
-6.0692778 2.4047461 10
3.4699631 -1.9595561 8
-5 1.2348628 7.4010334
-8 2.7883828 8.924921
3.8181536 -7.3627062 10
-5.4373493 8 5.5727396
-8 6.5100489 1.4860959
-2.415184 -8 0.72073519
0.9842881 -5.0812769 0
8 -7.3010988 2.5803471
-6.455843 -4.1651878 10
6.1603794 -8 8.2487555
-5 3.0018377 4.8701267
8 -3.7921059 4.0804129
6.7862134 8 8.1989183
4.1549106 5 4.6674271
6.0050087 8 3.2585745
2.5749378 -2.7859812 8
4.7459974 5 1.6571343
-2.796566 -0.85209215 8
4.6677551 -1.4744952 8
4.9201574 8 9.0734577
7.6503472 4.2380614 0
-8 6.8804698 5.6550412
-5.0555787 8 1.1531389
-5 -1.9374931 1.3508973
2.7956276 5 0.37942693
-8 -6.3509789 2.5977895
-5 -0.57483435 0.14721632
4.0526733 5 6.841465
8 -7.4790602 0.85592699
5.9789467 3.3359742 10
-5 2.7038548 0.76562929
1.863677 5 7.3777709
0.63142419 -5 4.6393933
-5 4.7590847 5.8858294
-3.7487268 -8 1.8247741
-3.7426019 5 7.6461916
-2.5385461 4.2438354 10
-5 0.61274898 1.8851986
5 -2.1730256 1.322193
-4.5099211 5 5.3812089
-0.27881718 -3.7955976 8
5 3.4210677 3.121856
-8 4.3995099 9.8567677
-1.9802547 -8 2.2072663
5 0.2543543 3.0551589
-2.0351298 1.3446168 14.428387
5.8799028 -2.0639749 0
-3.4850349 8 0.69089293
-8 5.4372687 8.6422892
1.9470154 -0.025288515 15.81337
0.37734333 -1.3055155 17.520796
-3.1509161 8 8.6019773
2.6124263 -3.2564654 8
-5 -0.91582501 1.2511063
7.2710533 1.1181827 0
-8 -7.5058899 4.8520937
8 -5.9037757 2.5567291
-5 -4.9415774 5.1267586
8 -0.39235139 3.6286502
7.9305367 1.0606823 0
2.2418222 4.4346623 8
8 -7.1204243 9.5647717
6.8382883 8 9.3738508
-5.8608313 -8 8.8717117
1.9304243 -0.65948594 15.554528
-2.8168149 0.80328465 8
-8 -1.2117578 4.2384768
-1.6912352 -8 8.8213177
-5.9750414 -8 5.7291937
-2.5412457 -1.761245 8
3.1054513 8 1.0772324
-6.7879944 3.2683058 0
-8 -1.0859628 3.164088
5.7458401 -8 8.3149118
2.7019925 -0.7823053 8
-3.8473082 8 8.9590683
-8 2.3440857 7.5298877
5.9345274 0.47419009 0
-8 7.4625306 9.2559252
-4.3158321 -5 6.6217232
8 -0.15528393 2.9967813
4.995245 5 6.6190329
7.2782426 -3.8319058 10
8 2.6068695 7.5236659
-5 4.050539 3.0855601
-3.8602991 -2.1329036 10
-8 -4.1639099 5.4924498
2.3876212 5 7.1369228
8 6.6911602 0.84412509
7.4545064 -6.9280005 0
6.4672537 8 5.2142162
-4.5848103 1.7886803 8
-2.3510799 1.4317098 8
-5 4.9968634 3.2259943
3.8914413 -5.9696388 0
0.53821003 -5 0.13226032
-0.66844136 -0.43412828 19.144785
-8 0.66316128 9.8227253
-2.8788824 -5.0759745 10
7.7512426 8 7.5595241
1.2567974 -6.1931419 10
-1.704127 7.2357149 0
-1.0124178 8 8.9342594
-2.6229267 -4.548758 8
1.4313266 8 2.7627826
8 -3.2211177 7.3984938
-8 1.0028579 9.8505678
2.4524379 -5 7.0544953
7.3940234 8 4.2435875
-5 3.3051662 2.1887281
4.1093216 -5 7.6649723
-2.3350167 -8 0.79511249
8 7.430954 2.002912
3.9723735 8 0.47147155
-6.1767979 -8 5.3738718
3.2778571 1.5541171 11.027818
4.3792429 -0.34142059 10
-3.7213318 -5 1.9682204
5.370697 8 6.4799776
-7.0221243 8 2.0815148
8 5.4133291 1.3793818
-8 1.9897087 9.0379601
0.9594574 -2.7410688 8
-1.6741843 -8 8.3919697
-7.4916878 -4.6654449 0
4.367908 3.6037631 10
-1.7129378 8 0.7746923
-5.22577 8 5.19452
8 -4.366168 1.2322282
-8 1.5780218 2.9552701
-5.032753 -8 2.1239803
-0.058964476 4.0658264 10
-8 4.2119026 1.009169
-2.917592 -1.8275063 11.500854
-6.1484728 -8 8.6767921
4.9616041 0.41226417 8
-2.5415072 2.8816109 10.423761
-5.6619792 8 1.3840258
-5 -4.7712421 3.7057486
4.2762742 -4.3604779 10
-5 1.8556786 5.6602941
5 1.3454162 2.0959656
-4.1014891 -5 6.702436
6.6435885 -8 6.0363793
-3.2857475 -8 0.99832833
3.0026188 -3.9464488 8
-6.5971766 4.7220669 0
-5 3.3761816 7.6163721
-5 1.9272466 3.7377181
-5 -0.24272668 0.84150267
1.8090585 -5.037797 10
5 0.2030654 1.0055166
8 -3.1075044 8.2332745
-1.4260464 8 4.7433133
8 2.9045992 5.1527743
-2.715786 8 5.957942
-5.2144513 -1.5172385 10
-1.5826517 -6.0543308 0
-1.8280602 8 9.5082016
2.5365415 1.187094 13.399313
0.048150778 -8 6.8547988
-4.9882903 -8 5.9473839
4.7227268 -4.1858797 8
8 -5.4765015 5.5879726
-5 4.4617443 5.939846
6.3708272 5.3922873 0
4.4961596 5 5.735076
8 -5.0220995 9.2153769
-8 -7.0918126 7.0289087
-1.1400462 -2.0672312 8
-0.21136449 0.66917813 19.411348
2.2375469 1.7757726 8
-0.28076583 -0.89716709 18.719372
8 -1.9079494 1.4004996
5 -1.9136808 7.505383
8 1.7510147 3.4790921
-5 0.090507507 4.5774264
2.8399239 -5 0.47270918
-1.5688148 5.8823419 0
8 5.5203805 8.7664909
-3.028446 -5 2.9144645
8 4.5736303 5.752604
8 -5.909977 6.0710783
8 -2.1915867 4.4278326
3.2641335 0.99432629 8
6.0004501 4.1541152 10
-4.9359179 -5 7.2465034
3.9062521 -3.1343141 8
-4.7698164 -5.0843301 10
-1.9747357 5 7.5592141
2.2412612 -5 1.1965375
-8 7.5230713 4.8373008
-5 4.3167028 2.1567669
1.9384022 1.5021594 8
-0.11678648 8 3.1982172
0.10700595 1.6018016 16.840797
-3.4506149 -7.9418311 10
1.2831051 5.8107519 10
-8 -4.3817344 0.63489586
-5 2.9315109 7.8011513
-2.487587 8 7.9804683
-5 1.6212134 7.764915
0.56890285 2.3891187 14.348642
3.7442 5 2.2888
2.4449019 -3.2704401 8
-2.9415004 -2.2595501 10.757126
-0.47515959 -3.8682532 10.279428
-1.1790466 2.5273957 13.421695
-5.4347181 1.4511247 0
8 3.0215483 5.6748266
6.5964575 7.1219292 0
-4.0398531 -8 8.0325356
-0.063158512 -8 0.74603522
-0.09843564 -0.29710364 8
-6.9132051 2.8649142 10
-8 5.0565777 7.767117
7.3809328 1.1557617 0
0.58365583 7.9026122 0
-8 5.0223432 6.9532251
-2.9573541 -4.0715613 10
-8 -4.1363525 1.4559729
-7.6195025 6.8732653 10.000001
-0.92535591 -1.4997796 8
5 2.6702366 3.0121143
1.1655421 5 2.1326892
-2.7120247 -6.0557709 0
-7.4310613 -6.8148098 10
8 -2.7299397 6.1249905
-2.7799108 1.1739624 12.726164
4.5614777 -6.840251 0
3.2947743 0.10498408 11.938001
4.125701 5 1.1384505
2.2406085 -2.8950884 10.921406
5 2.0792425 7.4976954
-5.2016029 7.6097956 10.000001
-0.0086421967 -5 6.3247237
-4.3884811 4.4832134 10
-2.6441796 -6.8980379 0
-1.4908798 5 7.3341317
-2.262368 -8 5.5396771
-1.8048514 -3.2403855 10.808504
-8 -5.3369703 9.6306715
-5.6290884 0.6706686 0
-8 -1.9987249 0.55254221
-3.29603 2.1429925 10.174213
4.3040013 -5 2.3937397
-1.2670641 8 0.9830457
-3.9737153 0.7568475 8
-8 5.453783 2.900234
-1.4073529 1.9161153 14.573288
-8 7.9538908 2.65189
2.353811 -8 0.32046419
-1.7230649 -6.5668001 10
4.4410501 7.9907188 0
8 -1.9856429 8.278532
-7.2072897 6.2981257 0
8 3.1737957 6.914063
-0.15475512 -8 6.6958089
2.0631595 -1.2526819 8
1.4520512 -3.0668082 11.704117
8 -1.7470684 9.5826607
8 1.1574621 0.29583329
3.8298798 5.8243895 0
-8 3.3412097 1.051234
-8 1.9631262 4.9129224
3.2757773 0.84736174 11.723787
3.6495631 5 5.8270369
-0.84137821 5 3.0543096
5.7993979 -8 9.6216774
8 -4.751688 4.5187483
-2.337147 -7.3585882 0
-2.7711167 8 1.4236981
0.28411508 8 7.2310886
-8 -3.1458356 5.2049513
4.9791903 8 4.4032331
3.9053667 5 0.75302988
8 7.5673208 2.7550249
2.945148 -2.093955 11.041229
7.8421888 8 9.3051167
-7.296309 -1.7229435 0
-0.57155538 0.93536055 18.274145
-3.5841842 -8 6.8472862
-3.3931725 -2.8171337 8
6.422524 8 0.18110216
-1.7598143 2.7141714 8
4.3296642 -6.1493363 10
5 -0.31005561 7.1007247
5.1896372 -8 5.4531965
4.3209343 8 0.74519336
-5.8248615 -6.4476972 0
-7.9819617 -8 0.86528033
-8 4.3526211 1.9094983
-2.0785251 -2.8481932 11.320812
1.9165473 -6.5215955 0
8 2.9557161 4.2002206
3.7626972 -3.4722743 8
-7.0984306 -0.53312445 0
5.0000005 -2.3764515 6.8085084
-8 -4.1113963 2.4554696
4.6353593 8 2.6636653
-3.5060711 6.9958339 10
-4.6329021 -5.2185993 10
1.4803574 -1.4857025 15.383042
-8 -5.4458833 0.98858774
-0.59550738 -6.8466516 10
-0.63276446 5 5.3094053
-5 4.3890772 7.597857
-1.1343081 8 1.4889783
4.7311087 5.7264996 0
5.8368788 4.808866 0
-5 1.0016557 3.1579218
-8 1.2044632 7.5756745
8 -0.20581913 0.82617593
7.5905104 -8 4.6900764
4.9815073 2.2849331 10
-1.9912906 -5 7.7018461
-6.6446824 -8 4.9317164
1.0879271 -8 3.4974213
-5 -3.7820315 5.3190546
-0.71410751 6.8135476 0
-5 0.40320992 3.0628858
-5 -1.976447 2.6180205
7.9908853 -2.9938798 0
0.23619126 -3.1607106 12.365137
-5 1.147951 5.4983525
7.964777 0.9736793 10
-0.57066727 -8 5.9787865
-8 6.1949215 5.6883087
8 -0.11928463 4.6634007
-1.099191 0.23120621 8
-5.8161283 -5.3132553 0
-3.0973113 5.3104439 10
-5 -1.563271 0.71574402
2.5589809 -6.933589 0
-0.44420624 8 9.4128113
4.3745928 5 5.3531666
5 -1.1926033 3.8307736
-8 4.7477345 8.7786779
0.063606977 5 4.766747
5 -0.037229776 0.4323383
-5.9471846 8 5.0463095
4.4423094 8 6.9603896
-5 4.3507166 4.7130017
7.1704035 -8 5.3386436
8 -2.9372525 4.5437274
-4.5997391 5.8434067 0
8 -0.69996214 7.4481611
-8 0.70554245 3.1939435
-3.3028402 -0.58655834 8
7.2872791 -8 5.9323354
-8 5.5130701 7.5728621
-7.8980536 1.4625432 0
-4.857645 -8 9.6488132
-1.2947075 1.2694 16.221725
-3.2346525 -5 7.2268915
-4.5821495 -8 4.4245677
-8 -7.6661105 8.9382086
3.4402711 1.0819974 11.040381
5.7842622 -8 7.5519214
-0.33633184 5 3.3309083
4.529583 0.7675162 8
1.5611967 -5 3.29776
0.46520138 3.1113625 12.370105
6.4814234 -3.0461581 0
2.9015431 -0.20477939 13.060508
8 -0.049623489 2.1817331
-8 -5.7980957 5.7826548
-8 -7.6662531 2.5136709
-2.8968692 -1.1901777 12.398149
5 -2.3793793 0.57715279
3.2190149 8 9.0804453
-4.4688234 -5 0.71088278
-4.6590204 8 6.4563909
-4.2049642 5 3.1172066
5.385613 -2.368875 0
-5 1.0431708 3.6717286
-2.1123693 -8 6.5605826
-3.5263624 8 6.4145432
5.4244537 2.0230012 0
3.8631904 8 6.8389711
-6.9196963 -8 7.2773352
5 3.8326092 4.760159
1.2444687 5 3.9860857
-6.9580688 -0.7668736 0
5.7218242 5.8768978 10
-8 3.6860409 9.5598593
-4.1974096 -8 2.9501846
1.0878367 -3.1907532 11.751754
-7.0669365 -8 0.54430896
5 -0.79146385 4.8528996
-2.6123157 0.95797318 13.417663
8 1.8627548 5.7260842
2.2444403 8 4.8052506
1.7806427 -5 1.2503138
-7.5932579 8 5.725729
3.9853067 -5 6.2922392
8 -0.063389063 2.7895632
-5 4.4108849 0.92690802
-7.5021791 -5.9303274 0
-6.9722977 8 4.5794644
-7.8864751 -3.2843356 0
-8 4.3568711 1.1142092
-2.1829414 0.80218089 8
-0.1522736 3.7587514 10.622874
-8 -1.8158889 2.1562786
8 -4.6306124 5.2157869
-8 -6.5759406 1.6132877
8 -1.8528558 5.0570984
3.5765071 -1.2911713 10.519543
-5 2.970561 3.794975
-7.4506569 -8 2.9160652
2.7165098 -8 0.0090749012
-7.6149411 5.6469984 0
-8 5.1475501 6.6385136
1.4663715 8 1.4165348
8 0.67978001 9.7173309
-4.8532338 5 4.9965897
-6.0243998 -7.9021215 0
-3.2150216 5 0.14042249
1.4499546 8 3.3367176
1.6126666 -0.1229877 16.777634
8 2.9384089 8.3865395
8 -1.7643602 3.3993344
-8 -3.9646161 4.3378849
5 -2.6733587 3.9886615
4.1265965 8 6.2404871
-7.9684911 4.358943 10
-1.1435182 -4.0371847 10
-8 5.4613771 4.8850398
3.8599491 2.0983539 8
8 1.0151165 8.6224165
4.5017991 -7.4496508 10
-0.74689364 -8 2.6993504
3.6163998 -3.7731907 8
8 4.4583025 3.0549405
-0.19041377 5 3.6282251
6.457305 -3.2494843 0
8 3.3425426 0.74304831
8 -1.9736228 6.5736227
4.4691143 8 2.8496571
8 -2.4677496 2.7672136
-1.213295 8 3.4635882
0.95948899 5 2.6680825
8 3.6808825 2.1189394
2.8555565 8 9.6673155
-4.9596891 -5 6.7444534
7.0916543 8 2.7580261
-3.735898 5 2.413239
-8 -4.1422086 0.82747072
8 -3.4593468 1.7299635
5 0.88556647 1.7490464
3.1836956 0.54709375 12.161573
8 7.3318043 6.7113872
-8 -5.4136672 6.9266152
-7.1701574 8 3.7114878
-6.8917441 -3.2698884 10
4.7788563 -8 0.34648639
-3.2386556 -2.985764 10
3.9590414 -5 6.7237496
-0.61336732 5 1.635365
6.2466273 3.6496632 0
3.5437443 7.4147744 10
3.6708493 8 1.7740512
-8 3.3933229 8.8052225
2.4201534 -7.5241137 10
1.3351126 2.88078 12.280392
2.5993633 -1.0014203 8
-3.8529539 -5 4.1895838
-5 -1.3169203 1.9551711
-2.8096886 8 3.7426753
-0.66084099 -8 9.7546911
8 -1.2917833 2.748662
-0.019073606 2.5215993 8
-7.6564507 -4.087255 10
-8 -3.7573166 9.7561731
-0.60210705 -5 1.7879105
-2.3047295 7.0832086 10
-1.9789259 2.5821829 12.053326
-5.5654135 -8 4.3930869
-3.4112124 -1.1482466 11.105452
-3.4734738 1.0022957 11.084189
6.240448 2.289896 10
0.71958017 5 0.88943988
3.4802759 4.5135822 10
2.9703138 8 1.7940259
8 2.8929386 9.9036894
0.39477527 8 1.6442883
8 1.8827629 9.9039431
-3.4207428 1.0203661 11.194864
2.3382025 8 5.578661
-2.7196114 -6.6800141 0
8 -1.5535908 3.7005577
-5 -4.4615231 5.9412041
8 0.79831028 4.3274336
-8 1.0594031 3.7002461
-0.18409157 8 9.6779785
0.13646221 8 2.2630215
-0.29619169 4.8610024 8
-0.8943494 5 7.8103275
0.92711449 -8 1.283778
-1.1919881 5 2.2362716
5.2645473 0.21624649 0
2.164813 8 9.6992197
8 -5.0390472 3.4353635
-5.5251493 8 8.8674707
5 -4.5881882 2.2511902
-0.029637337 -5 2.4597621
-7.9234204 -2.0866175 0
1.3540349 -7.8465886 0
-8 -0.25327539 1.6230097
-1.0579003 -5 3.3817303
2.0300806 6.8908205 0
3.5694678 8 4.7922726
-7.093852 -5.2972841 10
0.54596996 5.0747542 0
7.6171474 8 5.9106627
6.3662386 1.06057 0
2.8964825 5.5183191 10
2.2851121 -8 9.3870306
-8 3.9558158 9.6409674
6.0281296 8 1.3238925
7.9843445 8 4.8523502
-5 -2.8348517 1.6576838
-1.1818138 -4.8006163 10
8 2.2517776 2.9745638
-1.1301348 6.3295517 0
8 0.34749126 3.1492193
7.8209796 -8 6.9103241
-8 3.791224 8.2148485
-3.6089106 8 1.2221754
-5.8137732 -8 3.248116
2.7505486 -5.1803226 10
1.7956772 -6.9030104 10
8 4.1940527 2.9143786
-5 -1.3499384 7.3953829
-2.5017965 -8 8.0004711
0.46750522 -5 7.4295149
-6.8924975 3.9064858 0
-6.1641326 -0.1095655 0
-2.8615658 8 1.3093251
-6.2684741 -8 9.5453262
-5 -0.42797327 5.7110028
8 -0.66674948 7.4500017
-8 -6.9782248 2.8590977
-5.2841272 0.54060459 0
7.9980397 5.6523857 10
-4.2472582 -5 2.0972939
2.0967498 3.2028863 10.459389
3.6332798 -4.0114594 8
-8 6.2237449 1.9802675
2.1202333 -5 3.8257241
2.3174956 -1.7282943 13.128097
-8 -1.2641661 2.139138
1.312426 1.4267724 15.837822
-1.7096617 5 3.1755207
-5.0144649 4.3160515 10
-6.1004238 4.2206049 10
5.2032585 -6.1355143 0
4.4039936 3.6010089 8
5 -3.2910845 6.1904712
0.34644115 6.8775678 0
-8 -3.393465 5.9794998
-1.3842254 -5 3.4555614
-8 -3.8877792 3.1645463
-7.9884892 6.021965 0
8 -4.7695594 6.647109
0.51152283 -5 2.0253816
5 4.1274581 1.3629982
-6.9317479 -8 1.0635214
-7.00735 -5.0162716 10
-6.1321659 -5.7982483 0
-0.34033573 5 5.3552618
-0.30629635 8 8.5022488
-4.7276468 6.5376463 0
-5.1627092 -7.3796306 10
-7.6995873 -1.7334294 10
1.2603757 -1.6485213 15.472895
7.668539 4.1979446 10
-5 0.21702862 6.8078785
0.94617569 -8 3.0200899
6.2153273 8 9.9789219
1.3909882 8 0.37619114
1.9914398 -2.8515472 11.414598
7.1356201 8 0.90684891
-7.1656704 -8 3.8009121
1.5712441 -0.26859057 8
5.5163732 -8 1.5300037
-5 -1.5149534 3.2053275
-5.3661194 -5.8542624 0
-3.3836126 -8 4.8533936
1.6969876 -5 1.677875
-5 -1.6283945 0.16223145
-3.8580179 -8 7.7401514
0.20109789 5 3.9576619
-3.7835217 2.8665209 8
1.8014586 -5 5.6169071
6.803658 -8 3.820322
8 0.32028136 5.2550182
-3.9763031 -8 6.8739409
-8 6.2931967 7.1205993
-6.9691138 1.5965652 0
5 -2.8035457 2.1125548
-6.3866401 -5.5642543 10
5 -4.9824915 4.6223712
6.9975033 8 4.5631461
-8 3.6973214 0.74768913
-8 -4.7967935 4.6971216
2.584075 3.834945 10
-5 -3.9362309 7.0414243
4.2264118 8 8.9578266
5.2206693 2.217684 10
-5 1.0594039 4.3822975
0.23450541 5.8985043 10
5.3827677 2.4955225 10
-6.4366217 -5.125864 10
1.63761 8 0.93898714
8 1.9735322 6.7814779
-8 5.0422959 1.7495252
-6.5878472 -0.96156251 0
-2.9237158 4.7464046 10
4.5674205 5 5.5561886
2.6625473 5 2.5217211
3.4327774 -8 7.1587281
5 0.17320061 7.0507655
5 -4.4337997 1.2268007
1.5032678 -8 6.5318284
8 -5.4244018 9.9739513
6.6957231 -6.9023776 10
-5 -4.9862852 2.3732147
-6.9706907 -4.4661808 10
5 3.5472279 6.7486143
3.9840693 5 5.4806857
-4.4885483 4.4319119 10
4.7228284 -4.3350811 10
-5 -1.7122999 2.312839
-8 6.514164 7.4466949
-0.49952531 -8 0.48790798
-4.313798 -8 0.24647786
-3.3854089 -4.9907465 10
2.9756205 4.2285256 10
-5.8096094 5.8167305 0
1.540588 8 3.4700894
4.2786856 -6.43787 0
7.8793974 -8 2.6093752
8 6.7354898 4.9128838
4.4548559 2.2338026 8
4.0041761 4.9999995 0.59774846
4.214654 -5 4.8923864
-5 -1.1923766 3.0364699
3.2525141 4.4236908 10
6.1241593 -5.1454763 0
7.0949888 1.1379098 0
7.819736 -8 9.705966
8 -3.4165668 0.23935133
8 4.5827007 7.3273454
-8 2.3797393 7.8569741
-1.7364774 8 2.8915019
4.9613314 5 4.4173393
6.2043309 -8 1.7414178
2.0262036 1.2488214 14.564366
-8 -4.437211 1.4070293
5 -1.1202097 1.7388645
1.0985075 -8 2.816376
5.5838647 -8 0.68784803
-2.5540252 7.0365314 10
-6.9537754 -8 8.4725637
-2.6709318 -3.6680758 8
5 2.423475 7.8464146
5 4.5155945 2.1447208
3.0818663 3.6507249 10
7.9294858 -6.3965464 10
-5.3136721 8 4.5666161
-8 5.9014797 7.7570863
-0.29954889 -0.44776836 19.887215
4.3834281 8 5.6534438
-0.84542435 -3.4354019 11.275951
8 1.1654835 1.6734055
-0.91760612 -1.9549229 8
1.0338184 3.0852787 12.110111
