# .PCD v0.7 - Point Cloud Data file format
VERSION 0.7
FIELDS x y z
SIZE 4 4 4
TYPE F F F
COUNT 1 1 1
WIDTH 2033
HEIGHT 1
VIEWPOINT 0 0 0 1 0 0 0
POINTS 2033
DATA ascii
-5.3737607 -7 12.450329
1.1869247 -5.9575949 19
5.3765211 8 5.3090439
5 -0.89713371 12.792711
-5.131907 -2.4741554 19
4.5584917 -2.0032258 19
-2.156312 -5 15.587291
6.4738393 -7 11.193348
5 3.8580375 5.347548
-7 -4.6815486 19.169739
-4.9843168 -5 12.539925
-5.6785393 8 0.30079842
-8 -7.0895729 5.6075964
7 6.5718007 16.518021
2.5 5.9620843 18.096909
-2.1898785 3.4821396 20
1.2306118 8 2.1449285
-8 -3.078042 5.4847622
0.3559835 8 2.8966503
6.0607748 1.2559128 0
7 -5.1694946 12.651231
8 6.5258121 8.6451721
6.2647867 8 5.9336972
8 6.8034172 7.1913595
5 -2.6967781 10.707113
-1.6578324 8 1.5068179
2.7928476 8 7.8121052
-2.4377642 4.7504025 20
8 6.5790396 1.2130511
-4.2973661 -5 7.2893214
5 4.0178275 12.270495
5 4.0620565 4.9389191
-0.99247646 -5 4.8705454
-7.7896662 8 7.2122803
5 2.8585758 7.2382855
4.9900045 -8 5.7048459
-4.8630867 -5 5.8039675
8 7.2524385 7.7057986
-5 -0.93318009 5.8109026
1.1859213 5 6.0291209
0.74175978 -7 16.333914
8 -5.0854564 2.0519929
5 -2.856812 1.6866567
-5 -0.36942053 4.4987192
3.8296452 -5.5 19.872768
-8 -5.3161302 3.9530981
-7.5610495 3.9960504 10
-5.5298824 5.1212378 20
-2.810884 7 10.344224
6.146431 8 5.9538994
5.6983643 1.5 18.950003
-1.5 -0.10028797 18.600105
-2.6861916 -5.0000005 4.9555717
-5.9726481 -2.5 18.511158
-0.44721508 -8 7.015254
-8 0.4774664 4.3990831
-2.5012977 7 12.863209
-0.91830063 -5 12.204399
-5.5881801 -8 3.1077745
-1.9391465 -5 12.432409
-3.1832645 -8 6.0784683
8 1.446888 5.1076932
8 3.4731665 3.2688119
-1.3848376 7.9180207 10
5 0.74639916 5.3837757
-2.8420055 3.1697333 16
-3.6134858 5.3357444 0
2.944427 -3.5 19.055447
4.334188 -8 4.9125538
3.33392 -6.4937921 19
-7 -4.0876088 12.492393
0.85942501 -5 3.2020187
3.5 1.8724513 18.011862
2.7447896 -8 5.3153062
-7.9793153 4.6562543 10
5 -2.3608303 7.1548882
0.68696642 -7 14.195433
-1.0562143 2.9123707 16
2.2706935 7 17.039822
-5 3.5636034 9.8567896
-0.1423583 1.5 19.816803
-0.36558247 7.769979 0
1.8608952 -1.3687911 16
-3.5466216 7.0422282 10
-3.5 1.7911355 18.120056
5 2.2456644 13.560819
1.2698544 -0.050986767 16
2.4690628 -1.5 18.587612
5 -0.33303022 13.448784
-5 3.8995068 3.1688056
-7 2.0244172 16.582739
-8 7.0852833 7.9791622
-7 -3.7505805 14.403111
-5 -1.9419165 0.76609135
-8 5.3354163 7.7795382
8 -3.2087862 1.6230801
-3.1143086 -5 15.157795
-1.9950142 8 2.8542738
5.5 1.8530135 18.841982
-8 -0.81979215 3.2757499
-1.9578056 8 4.0864139
4.4446201 -1.150888 20
1.9706938 6.1333108 18
5 4.9363632 10.659489
8 4.3432698 8.97295
-8 -0.16324615 5.0381279
-2.0570831 0.73897707 20
-5.4740448 -4.7348199 20
7 4.1586299 11.100985
-4.0827117 5 3.8874235
-3.9110391 -7 15.503465
7 1.4618 13.330795
8 -1.9880524 0.14361031
0.87863493 -1.9552575 16
2.0355015 2.7018619 16
4.2436476 -8 2.3472669
2.6523459 8 9.7278461
7.2185349 -7.721498 0
5 0.65351248 12.78739
6.9184332 -0.40783316 0
-3.542933 -7 10.070098
2.270443 -7 12.830583
1.427367 8 1.2648231
-1.2171736 8 8.9391832
-6.2159996 0.79545093 20
-0.23593354 -5 6.7681065
-7 -2.2301953 16.913813
-4.619926 -3.5162997 16
-0.89194506 5 6.3897324
7.0000005 -3.6351137 17.555803
4.259881 5 11.927578
5 -2.8524756 5.8899283
2.3302033 3.8904126 16
-4.0390019 6.6749005 0
5.8594651 -2.544734 20
8 -3.6700819 8.7692728
1.808066 -8 5.0413227
-0.65218592 -8 5.931251
-4.6181555 8 3.714325
-5.8197536 4.5442944 0
8 2.9070835 9.137536
-7 0.4290393 15.595537
-1.5 1.8846469 18.578268
-5 -4.5988131 5.7808094
0.030588627 -0.36551857 16
-5.4057837 5.1790094 20
-7 -3.818953 13.687654
5.0880518 7.5129108 0
-1.8485264 5 5.0503631
8 -2.6527195 1.1691507
7 4.8225265 11.600668
5.5500712 -7.5082865 10
2.8417203 -4.5 19.573023
-0.18829429 7 13.175539
5.5415192 -4.5 18.776764
3.2163439 2.5 19.609497
-0.74957657 -5 4.6277399
-2.5036664 -5 9.9072342
8 0.71771395 6.2472534
8 -1.4994426 8.2904787
4.3474932 0.62434375 20
1.7174398 -3.5 19.685083
6.0387378 -7.6664081 10
7 -5.2909698 15.165659
-3.7484136 5 2.3738928
-5 4.5974798 1.2281157
-5.6163769 -7 11.858218
-1.3752215 -8 4.6328421
-3.3688798 5.5613637 19
-1.1104532 3.4410868 16
3.6015694 5 4.7108693
7.9927087 5.7508502 10
5 0.25293529 12.500482
-4.037797 -7.3457656 0
0.17668355 5 4.8095231
-5.2524605 8 6.1665463
2.4590006 -8 2.3953466
0.5 3.6003809 18.72488
-5 -0.086360097 1.9789429
-6.2293963 7.515873 0
-8 -7.4407215 7.5717039
4.1019421 -7 13.095323
-7 4.6679029 14.879441
-6.9802608 1.9518788 0
7.6937499 -4.8731942 10
5 -4.0380626 3.3585253
-1.5001681 7 12.083646
-8 -2.4946041 7.3714185
3.1133404 -5 3.1390886
7 0.54526091 11.298355
-2.9139624 -3.1783025 16
-7 2.6253591 16.728077
-3.1403263 -7 14.521088
-8 -7.1795149 5.6908603
-3.8110018 8 0.39589524
4.4490418 4.1298923 18
-8 -0.91087568 3.8580558
-1.5 -1.5228046 18.4813
2.0922949 -8 2.4746552
4.3783836 -7 11.676014
5 -2.2125151 8.5054312
-8 -7.5737863 5.1938944
-4.9257436 -7 17.793072
-8 5.3026795 3.8328817
-5.1494265 8 6.8516459
-3.2127132 -5 12.766076
7.5469899 -7.6448283 0
-5.6960788 -8 1.2307621
-2.0708246 8 5.3083138
-6.8198118 -4.4177489 0
-8 -0.66982412 0.0051643522
-7.0000005 -6.6734681 16.432919
7 3.9602325 14.595708
-5 2.8645067 10.013108
1.1390355 7 16.620205
1.5968325 8 5.4217148
0.67502487 -5 7.9715481
-6.7578521 -4.1880698 18
-6.2523117 -7 12.619684
5.0813727 3.5 19.668354
1.2757703 5 4.326405
4.4444733 5 3.0448573
8 -0.70538795 5.8473206
-5.7052374 7 11.75241
3.6800201 5 10.196988
1.7636939 -8 9.8613091
-8 -4.6877632 3.27054
5 -1.2418799 15.044406
3.1329055 5.8146729 0
5 -1.3225068 4.7487578
8 4.8652191 9.7222052
-5 -4.7372742 0.46023941
-8 5.6643991 5.3617501
3.9549887 -1.5 18.82444
-2.1876891 4.3583503 18
-4.6873798 -5 3.2658784
-1.2314481 3.4949145 16
-1.9260465 -5 6.7968426
8 -0.0084187984 7.9108167
-4.6262536 6.6015306 19
8 0.23104572 4.3145447
-5.8839021 -8 6.0663662
8 5.360939 2.0652115
-0.95331335 5 11.865547
-2.9811254 3.5 19.946316
-5 2.29704 2.5134583
-0.65331185 5 8.1228466
1.617753 -2.5084891 16
5.1357236 7 10.184853
-5.2470779 -8 1.2813835
7.4317422 -1.8899608 10
0.40190864 -8 4.774858
5 -3.7394557 8.2756357
-4.5826893 -8 8.4061165
-5.5975785 4.5 19.216682
-4.933095 -2.6483665 20
7 -0.88523078 16.929798
6.6567183 -1.5 19.303123
-4.7381525 -8 5.8390946
-7 6.4191308 17.120974
-7.9219742 -8 6.2480841
-5.7337799 7.1822042 10
-5 -4.3295264 12.572751
2.0144815 5 11.447967
2.2790008 -7.7588401 0
-8 -4.9545312 5.2909889
-8 -1.9780828 9.9662895
-6.807056 -7.8966365 10
-1.0487149 5 9.2058735
4.5320005 -5.7012954 18.999998
8 2.2321568 3.1717145
8 -6.2806463 0.34720436
2.627368 8 7.8811188
7 3.2345095 12.878019
7 -5.9825082 14.302205
-8 0.41678071 8.8681707
7 0.78153551 16.850399
-5 -1.3095304 2.4836378
-5 -4.4453754 15.794041
-2.9548652 8 0.28726339
8 2.7166615 0.76290524
-1.5 1.5273421 18.122019
-8 0.86460781 1.3944677
-5.4322529 -7 11.830442
2.9470096 4.1059875 16
2.733032 0.5 19.336975
6.7691102 -8 9.3080559
7.9830036 -3.6098499 0
8 -4.8604765 1.422652
0.64786184 5 3.4546125
-2.4565589 -3.6119375 18
-5.0000005 4.4973922 1.7627956
5 2.26336 7.3687921
1.0800354 -8 5.1153216
-5 1.7171537 7.8295403
5 1.4907682 9.113718
-5 3.8932059 5.3327055
-5 4.1857853 4.4864135
-2.0698085 -5.5 18.57753
8 0.35435057 7.5324974
5 1.9793334 11.906769
-8 1.5991554 3.9385283
-2.3370788 8 0.8773452
2.7090745 -7 18.521896
4.6961584 5 9.122406
8 3.8662386 2.7815039
-2.2459993 -0.63139415 20
-5 -4.9179225 2.4968328
-8 -4.0415087 7.2073927
6.9889741 -7.2273989 10
2.5472081 5 4.1131415
1.4212244 -0.5 19.334507
-8 6.8332958 9.7507677
-5 3.5867002 5.3271027
-3.780067 -7 13.299538
7 -3.6597481 12.536229
-5 -0.59765077 6.7417231
1.8142503 5 5.6778717
-3.8152184 5 0.10629684
-7 4.2559175 14.926794
0.66581607 2.6110756 16
6.4316387 -5.0948663 0
-4.3386374 -5 13.271381
-5 0.37801582 0.48736763
-8 2.2231128 4.1824288
-0.95860195 3.4982085 20
1.9181256 -7.5719047 0
3.6715627 -5.5 18.822813
-0.91898537 5 15.55895
-2.1649537 5 0.48263648
-8 5.9808664 1.96052
-7 5.3705502 12.976698
-7.9385495 -8 5.400032
-4.5779638 5 10.062657
-3.64993 -1.5 18.609138
-3.0207033 8 2.0407474
4.2639241 8 1.7647225
7 -3.9005046 17.780586
8 4.658864 9.1809931
-5 -4.1531935 13.078055
-5 0.90477037 11.914262
-4.5599809 -7 12.305252
-1.5015965 -6.4939346 18
-7.0000005 2.6427011 18.674053
7 -4.2339029 11.878296
-2.3899488 5 3.9572415
2.423789 -5 6.3567019
3.1563127 8 9.7310133
-0.42579865 8 2.1799664
-0.96261376 5 3.9581938
-6.817575 7.0000005 11.362433
1.5254005 5 10.6103
-2.3077021 -5.9565535 0
-4.0372701 -5.2061586 0
-5.6272354 8 8.0885401
8 7.8421679 7.410212
4.6456003 5 4.5112982
7 6.5655856 13.472281
-6.1567211 7.2403526 10
-3.2298443 5 5.982482
2.8437741 0.22125402 19
-7.8900156 2.9359202 0
-7.3564625 7.5853915 0
8 -1.0358133 4.2536674
7 2.520925 16.175894
-6.3769827 -8 3.2002747
5 -0.2582413 2.0930605
-8 -6.8977046 2.3885989
8 -5.9531522 3.1599269
-8 -3.3997955 9.668704
-5.8098612 0.5 19.121988
-4.7723885 -5 5.7993932
5.6882768 2.5438883 20
-4.5538578 1.5 19.518755
-3.9652796 -0.5 18.143818
-0.1084165 1.5794208 16
-2.4324741 5 3.4025664
-5.0144625 6.1683283 0
-8 0.81958121 4.3782387
-4.5955753 -8 3.7241781
5.5850186 7 17.299728
1.367058 -6.5366039 19
-2.7052469 5 5.3183846
4.5908899 -5.3240972 20
8 -7.3541265 1.1759212
1.965893 -1.5 19.170586
-0.26049924 5 4.5635633
-7.1712804 -5.9725909 0
-6.282268 0.5 19.980406
-1.0906744 8 3.0832596
5.4196119 7 18.500376
4.8476696 -5 8.9550152
6.3833818 -8 5.9537063
3.0380654 7 13.562489
4.2271824 -4.8981948 16
-6.9999995 0.98668945 14.012728
-8 -7.0480714 9.841629
-4.8427091 -5.2044339 0
1.1130418 3.5 19.058245
1.254843 -7.5071335 10
4.2094688 8 8.7676802
1.9800855 5 2.3401968
1.7650638 5 12.865808
3.2694321 -8 3.3829768
4.9220381 1.7690015 16
2.6431735 4.8279362 16
-3.5 6.9860902 18.985777
6.9790058 6.9686913 0
1.244125 7 17.155619
8 -6.3978119 4.1015711
3.966836 7 10.468358
5 -3.5170896 3.5267308
-2.549578 2.5 19.383429
6.4094343 7.5062761 0
8 -3.5082929 6.3560295
2.5183835 -2.5 19.014149
0.60399878 -0.5 19.052744
-6.7880955 -1.5 19.973837
3.9918723 -1.5 19.096252
1.1867955 7 14.156932
-3.3989992 1.2543769 20
-5 -3.2679718 8.7916975
8 -2.872772 2.5783761
8 -3.7996473 8.6114473
-5.3281851 4.2700095 18.999998
7.5097785 -8 6.9631243
-7.7196479 -8 6.269309
8 -0.028537989 4.5856314
8 -2.8292999 2.0503478
-4.7525887 8 0.78803837
-4.6979504 7 16.91539
-2.3691061 1.5898094 18
6.6595449 8 4.332695
-4.2881908 -5 5.7299571
-1.5753844 -3.5 18.919827
-1.4614151 2.5 19.746719
3.4272637 -6.6947575 19
0.048162222 2.914855 20
-6.0590172 -3.5 19.088966
-3.2676332 -8 3.3518476
-8 4.6227412 9.221983
-4.1490669 -5 11.373144
5 -4.9766927 7.2617688
-0.60169792 8 3.8050544
1.4921601 -7 11.024905
4.7980022 -7 12.68109
5 4.4356918 3.7712789
-5 -4.9295058 0.24414158
-2.7003078 5 14.349093
-4.246779 0.52539074 16
-2.195766 -7 11.830953
8 -0.30154335 5.9574399
5 4.8157673 1.1863767
5 -0.29423821 9.7963085
-5 -2.6939063 13.597229
4.6477618 7 18.393948
6.9408736 -5.5 19.034206
-3.117198 -4.0351014 16
0.59215832 -1.0396509 16
-8 1.5509681 5.2374468
-2.2305627 -5 6.4284215
-4.1934175 0.5 19.991091
0.074517965 8 9.8122349
-1.7358245 -5 8.8542871
-8 0.89716649 2.8399904
-3.3397872 -7 14.587062
-5 -4.8573074 10.172256
-7 0.80013645 16.679651
2.9917729 -5 7.7047071
-4.2273178 8 4.2403455
1.5 0.36899382 18.799379
-2.9539819 -5 13.597998
-5 -4.8689208 12.296041
-5 -0.24543047 12.274971
-3.690258 8 2.9873946
4.2246466 6.3454571 18
-0.78525352 2.7771292 20
0.5274446 6.668819 19
-4.7803197 6.7525496 0
-3.1537771 8 3.3886523
-1.5769999 -7 11.056477
2.4608271 -8 4.4166141
0.78479898 5 6.9356432
-2.4819 5 14.341333
-3.1267927 -5.5 19.655384
-2.4383087 -1.5 18.049128
5 2.2504892 3.8145044
7 2.2823532 15.732349
-4.8323107 4.5 19.044407
5.6608634 8 4.2530894
-3.5062068 -8 2.7771096
2.7662041 5 6.872335
4.893611 -7 16.548813
-4.8516998 -5 14.05439
-5.5951195 2.5 19.116062
-2.9520206 -5 4.5697389
7.0767851 6.6907239 10.000001
-8 3.0700717 7.5759535
3.127831 -7.8779473 0
-5.6601281 -4.5 19.147179
-5 0.67467451 8.2859812
-2.7460744 -7 18.434765
3.7557826 -5 7.9330187
5 -0.1502037 10.528578
-5 0.75226688 15.987891
-1.9401942 -5 11.902849
-3.5780063 5 4.4037871
-8 -1.8028259 0.37244993
5 -1.2281148 4.9042978
-7.4699626 -3.2705002 0
5 3.5594776 9.4496813
-8 -6.0705719 3.7161863
-5.4698067 5.5 19.300434
-1.8854655 -5 5.1122918
3.9154325 8 2.5485516
-3.2349653 8 1.4810359
5.1997504 -3.7906775 0
8 0.76087189 1.7653964
-3.4919577 -0.66867054 16
-5 -4.4716725 4.0620232
0.043031991 1.3537817 16
-3.5754139 5 5.1536598
-7.0000005 -4.8313236 10.235919
5 1.8653193 7.1787405
5 1.5840445 1.7637883
-0.86719352 -0.76162177 16
-1.2740633 8 0.0089257956
-4.1505375 5 11.322645
-7 6.7764735 11.970531
1.3598146 8 9.799612
-4.0245371 -8 8.4727325
5.2122998 1.5 19.973467
-2.7961998 -8 1.2887412
4.6223621 5 14.153656
-2.4037714 -4.0439429 16
0.26441145 -8 3.0813482
-6.7985315 6.1850967 0
-0.64621615 -7.0594769 10
4.5892472 -8 9.484726
1.9982071 -0.68623984 20
0.1095103 -4.5 19.179905
8 -6.9676638 2.5937822
-8 -4.4726973 3.0367236
-1.0284652 -5 11.917326
5 1.2317121 5.5085659
-1.4593248 -3.059377 20
-0.94005823 -8 6.1363125
-5 4.8393621 9.3028154
-1.6308392 -5 10.421528
-8 -1.1857607 5.5339389
6.718606 -7 12.823042
3.7091472 7 11.552427
1.4766557 -3.4999998 19.27754
-3.5409904 2.4561334 16
1.4941977 -5 6.1846704
-7 -2.9734797 18.886909
7.5675669 3.9452045 0
-8 -1.9614918 2.4363391
-5.5878506 3.5 19.694376
7.7717428 8 4.7519965
3.5090683 -5 0.27579784
-1.3287238 -7 16.772945
-4.8592081 -0.5 19.58201
1.9345187 -5 10.818321
3.1615715 7 15.353729
-8 -6.8735142 1.2869443
-3.0327787 5 4.0869789
-7.0124369 -1.8097296 10
-0.65612507 -1.449621 20
-2.9323564 -7.8230786 10
-7 -0.078391135 16.184528
3.2182565 7 17.237457
1.0376501 -1.4602158 16
-8 -2.1557133 7.0433874
-8 6.0075474 3.8846643
-7 2.5439534 11.403623
-4.3640451 -5 13.588754
-2.9119415 8 4.7753701
3.0668437 8 4.2151642
2.5941625 5 15.389194
3.3644018 -8 7.3671808
-7 -1.1020833 12.051649
8 7.0325251 8.5073023
-4.48104 3.5 19.196594
-3.7919884 8 7.5291276
0.88221192 -5 11.167067
2.5 6.121469 18.083935
7 -2.6360812 19.051264
-6.0329905 6.3202338 0
-4.1443701 -0.63512301 16
5.0626149 7 13.539222
4.220984 -5.5 18.521301
-8 -7.0547428 0.97527808
-3.0777822 5 2.3630466
-4.620615 -7 14.629822
-8 2.9306982 4.002347
-7.6835613 -2.172688 10
7 -4.6189775 16.563929
-8 -1.3542609 5.3427196
2.3633621 5 14.703346
4.2577405 -5 3.4630299
-2.503938 1.0204031 16
-1.7104263 5 14.000373
6.334198 1.5 19.867817
7 -5.928791 17.160662
1.1604581 -5 0.088448524
-1.9662833 -7 16.058647
0.49029732 -0.12865353 16
5 -1.8201625 7.6896858
3.2384753 -6.9153342 0
5 4.6353765 4.0693192
0.71554112 5 12.630623
-6.3162231 3.4115503 20
8 -7.1582618 1.6266865
-5 2.2436819 12.870368
-3.5 -5.8388505 18.803753
-8 -5.3300576 5.7051377
5 1.1345377 15.230603
-2.1839912 5 5.8641763
7 3.9886293 15.452509
4.5 -6.1922607 18.586773
7 2.6310191 19.604221
-5 2.4632921 12.911512
-5 -3.3587618 11.076469
0.88471437 -5 9.7978535
-5.6511297 3.5 18.239723
-7 -2.4980171 15.199668
-4.1525021 2.5512171 20
8 7.4573612 0.67661154
-5.1161466 7 12.98263
2.2896755 1.0815833 20
-5 -3.8040466 6.3196936
-5.5 6.0069971 18.499599
-2.0584095 -7 15.944209
5 -4.8405404 13.368782
1.8574067 5 12.67911
5.000164 -2.2916846 19
-1.3731166 -5.8104243 0
3.5 -5.7699223 18.12394
-5.7155638 0.69742727 0
5 -3.0725408 5.6971478
6.316637 7 16.563248
1.0058851 -1.5909806 19
7 -4.5035257 17.648375
-0.13992405 -2.2425299 16
7.2873459 6.6827683 10
7 -6.0034399 14.1636
-8 2.1221304 3.3188555
8 -6.4565253 4.4073615
3.6398711 -7 15.312921
-6.1871967 -8 8.1369724
-2.1224744 -4.5 19.17474
8 -1.7825117 7.4791698
6.2085981 -7 12.973614
-5.5314026 8 8.8611012
3.7861748 -3.5 19.208138
6.5918474 1.3255103 20
5 1.1012931 9.5351067
-4.599154 -7 11.689064
6.1136379 -4.5 18.918098
5.4344392 8 8.1756477
5 -2.0857353 10.075355
8 1.8753996 4.486165
-5 -2.7293375 11.799955
-3.4688277 7 15.711426
-7 6.911767 14.327535
-0.5 -0.47135043 18.425892
-4.1169128 -2.5 18.177597
5 3.074532 3.7320883
-3.5 6.6404481 18.9356
-0.058137894 -5 14.195923
-3.3350694 7.5589347 0
7.9947157 8 9.493866
-5 -4.7446904 10.584661
-2.925622 -3.9994054 19
8 1.054961 8.8613319
7.8523502 -8 6.5544748
4.6704769 8 4.7246218
-4.2506251 -7 15.429353
2.1470425 -3.5 18.209785
2.7042937 -1.7647328 16
-8 -7.0064788 8.0460396
4.3673692 -1.5105755 18
2.2272019 0.16141869 18
-2.8599248 7.2630906 0
7.6161427 -4.2041421 10
4.5022478 -8 0.10567079
5.5958529 -8 4.968874
0.22989762 -2.5 18.187122
3.4372509 5 15.192723
-7 4.3869133 15.50849
5 -0.87748247 14.521085
1.6932226 5 9.0093975
-8 -1.1498219 8.8344679
8 0.21927345 5.9851418
-2.3477073 -7.1188445 10
-5 -2.8359928 1.1275063
0.95512486 7.1931591 0
-3.9503834 5 6.0971131
3.8427992 0.088463224 18
-5 -4.7923894 12.688594
4.4632463 6.2746696 18
-2.0851202 -5 12.857702
8 -0.57635856 5.4208231
-0.47410202 -6.2523308 0
4.9208984 -2.771872 16
-0.22947896 7 15.620103
1.4796376 0.13741843 19
-7 -2.2468829 14.801619
-8 -2.5664165 6.481472
4.5 0.18921639 18.717392
-5 0.60546875 14.211731
0.30069876 -6.3655267 0
7 -6.6120963 11.260387
5 0.43117848 7.2673206
2.5001535 -1.4660513 16
-8 -2.4947324 5.573802
1.9599733 2.0874405 18
-6.4588709 5.2681727 20
-3.5272558 6.3412189 0
-0.55379856 4.3019886 16
-5 -2.3449709 6.5578289
-3.9034405 4.5 18.54649
5 -2.3436043 0.45047203
-0.13567638 8 4.3428526
-1.9905241 4.5 18.945839
1.8908775 -8 1.1275083
-5 -0.16235876 8.7524529
-0.49498275 -3.5 18.412651
-2.2006125 6.7601213 0
-5.2962704 -7 16.932007
2.3899851 -6.8989935 18
5 -2.8859339 10.834148
3.9159622 -5 14.827923
1.9247034 7.2211485 0
-0.5 6.3294897 18.298
-5.8926611 8 8.1200256
5 -3.8933949 14.483081
3.4873714 5 10.467282
5 -1.8159516 8.0909767
8 1.1984005 0.78873336
-2.8540261 -7.6595154 0
-5.2812185 5.5 19.474308
-2.124598 -5 13.814857
8 4.0246134 1.4639895
1.3871781 -5 4.4528322
-1.1451521 -7 15.776653
-2.706013 -8 3.5727832
-5.2622395 -8 6.1701775
-0.50073755 -7 13.773041
-5.9058709 -7.2657337 0
5 4.3711724 6.7030702
5 2.4668024 5.0947871
-1.0149769 1.648284 19
5.6981511 2.2597075 18
2.5589523 1.69036 19
8 3.9388027 5.4914865
-0.098718256 6.9999995 17.143217
0.6795752 -4.5 19.474442
8 -2.7483726 9.4917946
1.0640541 -6.152348 19
2.2333407 -7 14.043429
8 -4.7008648 4.550395
7 -5.6119318 15.265583
5.2392597 -8 4.1643934
7 -2.823102 13.35454
8 2.7058849 7.5912862
-0.6552881 5 3.0682878
-5 -3.5556531 5.9719391
-8 -2.2123466 9.6686306
5 0.28832316 6.5363789
5 1.9849074 0.74136996
3.4520178 8 8.5845146
0.78434056 -7 16.820637
5 -2.9829857 4.8338771
8 7.7845249 7.2760477
3.4527087 -7 15.602146
-5.7958202 8 2.5771253
-4.2743454 -5 9.0544262
0.47618508 8 7.4925036
4.8023777 7 14.494694
-8 3.8114781 8.2009277
-4.949563 5 4.238523
5.9761343 7 16.56805
5.5443182 -3.5 19.045013
5 -4.8690648 10.629587
1.5 -4.122848 18.815083
8 -4.9665174 4.4068556
0.7365461 -7 16.04524
5 2.6743367 5.5906897
-4.6818399 -7 11.643734
-6.0487928 3.8847511 0
-2.8809564 2.8351159 20
3.8820906 2.5 18.521618
6.4569826 -7 12.523272
-6.3580546 7 16.538139
-2.2145846 7 13.673298
1.5185786 5 8.9483757
8 -6.7646523 3.7477283
-7 -0.12871516 15.123337
-1.0285273 -3.5748615 19
1.4816499 7 13.080257
5 4.1801376 8.6526794
7 -4.7814217 14.95173
-3.4355037 4.2297258 19
5 -0.73077083 5.6525898
2.1013446 2.5 18.504946
7 1.6990579 11.679461
-5 -4.414463 10.014271
5 2.4703877 2.0782144
5.0427589 -8 6.710135
1.9165277 -2.1928966 16
1.5934632 4.5 18.824203
4.6945553 7 13.284571
3.5576336 1.5 19.368309
-5 -0.62522018 3.4599819
-4.4430819 -7 15.713465
8 -0.3492105 2.601299
-0.75245428 -5 13.091221
-8 1.5498836 3.3380752
-4.9361086 -5 3.050123
0.083886385 8 2.5467272
4.8115015 -2.0477424 19
1.0536542 -0.5 19.876575
1.9845896 4.8053732 20
0.95470357 1.5 19.88438
3.8951654 -8 6.8697677
3.0338764 8 3.799262
-2.498944 3.5 19.875942
-6.2969837 -7.346468 10
-5.7509665 -7.9065661 0
5 0.82433617 0.8399303
6.0620408 2.5 18.240921
5 -1.8931854 2.8907907
-2.5 1.6010373 18.422102
2.4722669 -5 11.940731
5.0589066 2.5 19.632366
-4.3430634 -5 5.1032791
-4.1331263 -7 11.32286
8 1.7752876 4.0848279
3.047962 0.5 19.446329
5 -4.2494917 11.688132
-2.3707581 -5 9.774929
8 2.0883648 7.4691615
-3.7566683 -5 14.483318
-6.2845755 4.5416436 20
0.31630808 5.08529 20
4.2148504 -4.5 19.018551
-5 -4.0553403 3.2885618
-2.6616378 3.5 19.177843
-4.3285036 -4.9399371 16
2.257659 5 3.4548111
-8 -6.9688573 6.2715602
6.4628873 -3.5 19.855577
8 -4.4798446 8.8169613
5.9944992 -8 1.0225576
2.4949188 8 0.072878599
2.440902 -1.5 19.897625
5 4.4413147 15.154057
-8 -5.2970452 0.64075905
-4.0650969 6.0825443 18
7 -2.1529577 11.615254
-2.1069429 5 15.943676
-1.3866677 8 0.9383285
0.41049194 5 2.2951722
5.6613994 3.5 18.726122
-6.6141033 -8 4.3126116
-2.4205282 -5.5 18.201134
-5 -2.5786548 8.2815447
3.8385839 7.5138674 0
1.0089676 -5 6.5720577
5 3.3049703 3.9549444
8 -5.1570516 5.9935255
5 -3.917841 11.756033
-6.2483292 0.5 19.468904
-6.9999995 -2.5082774 17.505533
-3.0827746 -8 5.8385382
3.0212269 5 2.99262
-4.3612633 -0.5 19.384632
-8 -5.3552313 5.6868243
-0.59569573 -7 11.95004
-8 1.0781314 8.1173058
-4.673964 -7 13.404026
-1.6644658 -4.1425509 18
-5 -1.1395131 7.3525047
4.6602907 -1.0826461 16
-1.7204559 -1.4597454 20
-8 -6.9291515 8.0120001
-6.5614371 -0.5 18.786026
2.8124435 7.0718417 10
4.1340308 2.5 18.724869
8 3.6813722 7.9911776
5 1.9756273 0.4015055
2.3665094 5 6.9291315
-3.0140042 -6.5180812 0
7 -2.1281137 16.736874
-8 7.9768906 1.6762536
1.1356201 5 3.578939
-8 -6.9709387 4.7957425
3.806695 -7 17.308195
-8 -0.87872535 8.5424252
-2.9778316 -8 5.1265359
-1.4013177 5 1.0134892
5 -1.5559642 8.4415741
-7 3.903523 17.019699
1.1159298 5 11.243099
-0.68561327 1.5 19.241425
-4.3119369 0.5 19.879553
8 2.1577129 4.8278947
-7 -6.0762167 12.387812
-7 -3.1042163 15.350684
-4.6483631 -5 9.632699
-0.90980434 4.6326199 16
-6.3473368 -8 6.5708871
5.4933949 -1.5 19.080282
-0.9744029 -4.9910755 20
3.0424242 6.3694863 19
-5 -2.1170259 11.314314
-7 -4.0000062 16.173653
0.17128181 8 7.4388723
2.5 3.5625157 18.866152
-8 7.539113 1.6960349
5.9117289 3.5 18.807562
-4.5 3.7138927 18.1038
-6.9221377 -2.5 19.053589
-3.6016641 -8 1.2525232
2.7170708 4.4891977 16
4.1115279 -8 8.8830261
-5.3023424 -8 6.5701008
6.7798309 -3.3978994 20
-8 5.9801612 7.863163
1.4465662 5 0.62450385
-5 -3.7462206 11.894373
2.5797868 -5 14.19688
-7 -1.3896899 17.564585
-0.85139084 -5 8.1014929
5.3157554 -2.5774794 0
-5 1.0878669 12.321989
5 -4.5078869 13.776034
2.4087007 -2.3208749 18
-1.5 5.503191 18.720001
0.51172113 -4.5 19.939579
7 3.4198959 13.320072
5 -2.0348961 11.272599
-1.0801497 7 17.69219
-0.50925207 -5 9.2829762
-8 0.12458849 0.76933718
-1.3751059 -5 10.959025
1.0312223 -7 18.79797
1.0988116 -2.5 19.225018
7 -6.6221828 11.999489
5.562871 -8 4.6827593
-8 5.8689499 1.8981838
0.11747026 5 8.9391022
-3.1820192 5 3.7284493
0.20727205 -5 12.344975
-3.9887486 8 8.8557596
8 -4.5399637 3.6389613
7.0785255 -1.8590472 0
3.2210224 8 4.0375004
7.681653 8 7.0703831
-3.7322235 8 5.9894533
-7 -1.3611131 17.447283
5 -1.7648726 0.77667677
-8 7.2179952 5.927968
8 -6.1280951 3.5498543
-2.7576206 7.2894831 0
-6.3903131 2.5 19.049051
-2.5992947 -5 15.458565
2.1449277 -7.3046436 0
-1.4319341 2.652734 16
-7 2.1992831 16.900663
-5 1.1937814 14.028698
-7 3.5874982 10.37825
8 7.3644333 3.3729599
-2.7717304 8 9.5415668
2.1254263 -4.4261222 16
-1.4746617 5 10.238532
7 -6.3091702 12.146725
3.4935508 -7 16.252831
-1.5 4.1027708 18.133522
6.8723364 8 1.2102723
-8 0.13510835 4.2520533
4.4903784 -5 5.0812597
-5 4.8003883 15.949986
-1.8511763 8 6.613986
-8 6.9459472 9.7530861
3.2070355 5 4.9426131
7 5.9418426 10.133266
-0.39049283 7 11.545021
7 -6.1549053 16.076694
-5 -3.0510056 14.35817
3.1049461 -5 6.3421879
-7 4.3909955 15.610234
4.5780363 -7 15.979923
2.4343593 -7 17.907221
4.5971804 -5 6.849966
-5 -2.6149178 3.6415396
-1.4935613 -8 5.6147909
4.3529453 8 7.5405359
1.6788629 4.99017 20
-7 3.2738874 12.886008
-5 -4.1666985 14.63286
-4.5870724 8 5.8071489
5 -0.38165069 8.8384037
2.5 -6.991137 18.002691
-5 -1.5165603 12.264376
0.73230934 -5 8.628891
4.8347006 -8 6.2094097
7 -1.0596094 16.028221
-6.9999995 -3.4163384 17.976871
5 2.5604806 0.58883685
-5.0147247 -5.4664297 20
-0.89791471 7.0000005 18.230698
-0.30818868 5 1.1045589
-4.3034496 5 8.7845612
-4.9667482 5 9.6301613
-7 -1.3444862 14.458371
-3.8125393 -3.4747403 16
7 1.3058413 19.511517
-5 0.036414862 7.3545132
5 1.8705134 11.397804
3.2828927 -5 6.7554216
-5 -3.3235261 10.111481
4.8925066 -7 15.085423
3.3575993 2.3815367 16
0.35198349 -8 5.1980276
-4.2775149 -8 0.21631263
-7 -5.9913778 13.353462
8 0.75691694 5.6213484
-7.3660183 -8 2.5985436
5.1121197 8 4.915359
3.5 5.7963705 18.634926
-0.87835133 5 2.0053036
7 -1.954325 14.477715
8 4.96209 9.3605404
-7 4.005228 13.642418
-5 -0.62328315 3.1494408
-5 0.38095045 13.594942
-1.5 4.2219009 18.900627
-3.7450716 1.0533588 16
-5.018877 8 2.0037744
0.98147857 7 11.72994
-5.8138185 -8 0.65971476
4.0735607 4.9999995 10.582325
8 -3.2311802 2.643337
-5.6317873 8 2.2824788
-8 2.8531642 9.1759548
-6.1171551 1.4722302 20
-7 5.4029393 17.696283
1.1364365 5 11.037726
6.2995143 7.2126126 0
-5 2.9164028 8.2334223
8 -3.815753 0.65507627
0.42228413 -8 1.046201
-4.1616302 -3.2646546 16
2.9318018 -8 1.8303353
8 -2.1361284 5.9617033
2.178514 5 6.5930347
-2.9833913 5 4.8297753
-0.054838896 -5 5.9884977
0.42391586 5 3.4193616
6.0042872 3.7656343 0
5.5256653 8 9.0361557
-0.93575191 -7 11.550042
-0.64150238 -8 9.9922752
-0.32245231 8 3.4118974
6.2115841 2.452276 0
8 -0.28063607 4.1726141
-4.4827218 2.5 19.271618
5 -2.1592999 8.5341396
-7.0427132 -4.3378448 0
7 4.7137017 12.77458
-1.2408032 6.5900059 0
7.16747 8 9.8953781
-5 0.5234108 4.9169989
-0.65882605 -7.0000005 15.717999
5.0641718 -8 7.5652194
-5.8143706 -3.5 19.385036
7 4.0831704 17.824619
-5.6594753 -7 15.724881
4.1602974 3.7564459 18
7 5.0246935 18.503973
0.4361347 -5 7.1480169
-5.6702161 -8 8.4475241
2.1953115 5 10.108642
-5 2.0040331 6.7240953
4.1459022 5 15.499759
8 6.0331907 3.8071375
1.0795734 4.5 19.80447
-3.8414521 1.5 18.076942
8 -2.556442 2.647649
7.9555559 6.5151644 0
8 -6.913085 8.7902117
-8 -7.1656137 7.1236663
5 4.1656861 14.114302
8 6.7189379 3.6428154
3.5603414 -7 12.033085
7 -4.540257 11.597422
-2.5046711 -5 10.820305
4.0621877 -0.95678568 20
-5 2.816431 0.38603306
6.1838999 -1.4833314 20
-6.7255001 4.5 19.279495
2.0112832 5 15.102574
-8 -7.8451066 2.7357118
-1.6339575 5 1.4246333
3.7856956 -7 13.729258
-4.5 3.8234837 18.974283
-5 -4.2588487 10.870449
-4.389492 -7 12.555628
-8 -5.5043216 2.4841461
-4.654295 -5 10.30473
5.6122665 -0.5 18.153597
-7 4.5946689 12.986593
6.4171734 0.5 18.092848
-3.4805646 3.5 19.737041
-1.5466185 -6.4676933 18
2.9232404 -4.5 19.360706
8 3.3689795 6.9617171
7 2.2975497 14.704189
7.8727021 8 2.7905035
5.0932207 -2.6307969 0
-5.7548418 -7 15.856132
4.5009594 -4.5 19.611853
1.650594 0.5 18.06542
-6.6286497 4.2736287 0
7 1.2147715 11.21575
-7 -2.1469889 15.753295
8 -5.725853 0.74238586
8 5.7254639 5.9365873
6.7915583 -8 2.8106081
2.5983155 -8 0.44912767
2.0238991 8 1.0737222
5 1.6255009 12.529855
0.87137204 -5 4.8372431
-1.6459942 1.3393526 16
1.8815558 7 14.464123
-3.2971087 8 0.909428
0.62687016 8 4.2173862
-5.0975614 3.5 19.483097
7.4908705 2.78684 10
-1.6962602 -5.5 19.158974
6.7160602 -7 12.511108
-5 -3.8375826 7.4026146
-0.60533929 -7 11.53449
3.0680242 5 12.750418
6.2157369 -4.3577933 18
5.6325874 -2.164778 0
0.38067937 -5.5 19.688551
-7 6.4163022 14.968074
-1.2677026 -5 0.14746189
4.6114855 6.9999995 18.302027
1.8613985 7.3072872 10
5 2.9067914 12.276056
6.8063192 -8 4.4172649
4.0861688 -5 4.2829027
-8 6.7228894 4.927536
7 3.6716857 13.197311
2.7263532 5.5 19.770287
-5.5756907 -8 8.8082228
-4.1243563 -1.5 19.956463
8 5.5174179 5.0613451
5.1316366 -3.5 19.044582
0.15242827 5 3.8614619
-3.5885696 3.5243917 18
3.673538 -5 11.489257
-0.063548088 5 2.046381
4.46035 -5 10.561044
-5 -2.8622761 13.702967
8 -6.7887688 3.4969034
-8 -7.8112121 6.1796036
-4.3233986 -5 12.01475
5.3196473 7 11.32316
-4.0494189 -2.5 19.587029
8 7.6380196 5.1882358
5.026957 -8 1.1864381
-1.3404322 3.0882444 20
7 -3.7526453 12.470591
-3.4876139 -0.88111436 20
5 4.118145 4.7179708
-8 -1.7421036 0.549757
-8 7.4039559 7.3998232
-4.2035303 7.6072822 0
-5 -2.2136486 8.7030153
4.403594 -7 16.774212
5 -2.3619678 2.1848683
4.7777662 -3.5 19.003765
-2.4828956 -2.5 19.549187
-5.3105688 -1.7321719 18.999998
3.7074459 -5 1.1941004
6.7483392 -2.5 18.631886
-4.514997 5.5 19.128145
0.79913783 0.5 19.6707
8 1.7559874 8.0643873
2.2584145 -5 6.7860565
7 1.2846324 12.07362
-8 -1.0278542 6.1338968
4.3048387 8 5.3491611
1.9100802 -0.56597495 20
-3.2431569 4.5 19.43421
-5 -0.88252187 10.530439
-7 -5.4091797 12.470085
-6.8111267 -4.701211 20
-1.4508662 8 2.931035
3.6651835 -5 3.228384
-7 4.7908115 14.670593
4.2262721 5 12.181597
-3.5 6.5760221 18.087214
-0.10312635 -8 9.7359362
-7 5.4338927 17.455927
-7 6.4154596 10.083684
-0.19107908 -5.5956545 18
7.4199271 -8 5.9228797
-7 2.3804309 13.109957
4.2717037 -8 9.5223703
-7 0.5696826 12.675585
-8 -4.6552143 8.7521687
3.6598897 -8 5.7975531
1.6707802 7 14.615227
3.7999678 5 12.277583
-5 1.3692893 6.46386
7.440145 -4.8629575 0
4.7682161 -5 3.2595901
5 3.9736333 8.2313614
-2.4080117 7 11.160686
-2.5 -6.0946274 18.136078
-7.8844967 -8 8.4483528
7 0.88755542 14.845996
-7.8997774 -5.7233682 0
-8 6.0366831 2.6326368
7.353653 -8 4.1991196
8 0.22003937 1.4461499
-0.79386926 -5 5.8746481
-2.7116642 -5 5.8849096
-3.9638491 -2.0884717 18
2.3679066 -7 13.134815
-6.9856787 2.5 19.749992
-2.8438702 1.1014738 20
-7 5.2106051 15.84353
8 6.65833 1.8252236
5 1.8820176 8.4715204
-2.1198721 5 14.181456
3.8907757 4.2735777 16
-6.3881946 -8 3.0548024
-6.3804865 -7 11.995639
0.93792135 2.3449647 16
-2.5987053 -2.5000002 19.06638
-3.2216117 -5.1914315 20
-1.8348112 -1.8765795 18
5.0799456 -2.5530331 0
5 -2.8983951 11.220771
-7 -4.8643785 12.538556
-8 7.2348485 7.6383743
7.8022461 8 6.4070282
7.8829551 4.8792477 0
-5 0.84136295 14.458032
4.7914453 8 5.7783694
-6.9501915 -8 0.66147864
-7.1605434 4.7922225 0
-2.9358902 -5 0.031229973
-5 -2.0889466 8.5583944
-8 4.0216088 6.7202916
-8 -5.5590186 3.9247198
-1.46997 5 11.713409
-8 -0.62065887 2.2808754
-4.9667463 8 7.0714478
3.4840348 5 0.54380643
7 -4.2366195 16.993752
-5.4531579 7 16.810467
-3.4474688 1.5 19.828596
2.1312172 -7 17.070599
-8 7.2350149 2.8516967
-7.3312039 7.2182245 0
0.46035588 -8 3.911937
1.4656665 -6.6686096 19
5 0.50028265 2.3212421
-5.5 0.3504712 18.858023
7 4.8010812 14.297777
8 -1.8843017 9.3458939
-8 5.817018 1.5752486
-5 -2.2225652 1.9820986
-5 -3.8308806 11.62836
-0.5 -2.4614654 18.334141
2.5 -0.23305285 18.460684
8 -0.30413938 7.8752451
0.35104924 -6.9999995 15.5954
-6.9202061 -8 7.7552595
-1.60095 5 8.7327156
-5.9278674 7.4783616 10
-6.0646963 -8 3.6001692
3.5 1.7761763 18.485893
-8 3.3175168 3.0007999
-5.3940473 7 16.262808
-7 -2.766412 13.732689
-0.80840707 5 5.314846
3.0475955 -5.8784542 19
-5 4.3561878 0.39766979
5.961112 -0.96477294 0
-6.5921516 8 1.5450937
-1.5 2.0731843 18.535225
-5.9150128 -7 14.210764
-5 2.6461053 13.430604
-0.46411586 -7.5657835 10
5 -0.64288056 15.514792
-8 -6.2500296 4.3459406
2.5 4.1379514 18.270912
-8 -2.4057875 5.000627
-8 7.4062576 4.9395146
3.3139439 -3.0203195 16
-7 -6.9402814 16.58736
-1.0283632 -3.1131415 20
-4.4229341 5 10.261096
-5 4.9999599 3.6821325
5 1.2291197 7.2726617
-7 5.3859076 16.031937
-2.2527122 -0.5 18.369093
-7 5.309813 17.684471
-8 0.36571145 0.10951778
5 1.4274759 4.1263208
4.0887551 3.8239717 18
-5.2358775 -7.3981972 0
6.3766394 8 2.3028154
2.1037543 5 13.091558
8 6.833271 3.1373689
3.3029594 -7 15.470089
0.85172701 -7.6988082 0
8 -1.8699703 4.1604366
-3.1998744 5 7.8780956
-1.1597307 5 11.082252
-5.4401903 -6.3841209 0
-3.6095858 8 4.2532258
-2.5914495 -5 0.82587337
2.9930034 5 3.6218569
3.6044035 8 1.6605145
7 -1.6968583 17.000061
-7 -2.1740234 14.549864
-5 -4.4190331 0.36567116
8 -0.35456443 1.442572
-0.65970898 -5 4.4147844
2.3068166 0.40270901 16
-4.7056561 -8 9.6704721
7 5.8580885 17.40131
8 0.91724396 4.8426356
-3.5 -3.8634405 18.834293
-4.6327658 5 10.367824
-5 -2.7493858 13.713505
5 -3.7411199 4.2831607
0.5623349 5 5.8521681
3.889107 3.2449491 16
-8 -2.0942349 6.087296
-7 2.7574039 13.388406
-3.8061972 8 7.0376186
-5 -3.1052399 15.724566
-3.5 6.4085941 18.998636
8 -7.784615 4.7673526
1.0659566 -8 6.1305075
-5.6731567 -3.5000002 19.233324
-4.2693596 -5 14.308928
7 2.3291175 16.296068
6.5734835 7 11.232266
-1.143898 8 3.6515355
-1.6024098 4.5 18.399145
8 -0.72621739 5.0866013
0.93899655 -8 4.8220363
6.2252574 -4.217741 0
6.626483 7.7870846 0
-0.98002273 -5 2.8852072
-0.54351878 8 0.93076766
4.8462596 5 11.306559
-5.6551661 5.5 18.437502
0.5 -2.1452994 18.818703
3.314713 0.5 19.013412
-8 7.5405598 2.9868639
7 4.671608 19.461594
1.4670646 4.9999995 12.038611
-7.210526 -7.0067425 0
5 1.9863331 13.913063
4.4619789 3.3353598 20
8 1.7214012 6.0592985
8 -5.4816155 6.144453
-8 7.6706057 4.9625497
8 -4.7135262 8.3169308
-2.6803851 0.56032312 16
-1.4667192 -8 5.0466495
5 0.51299095 2.8312845
3.3983912 8 2.4372053
-8 -6.1028748 8.6909752
-5.3650532 3.271544 0
8 -1.4036901 2.5777459
8 5.3190937 7.6589489
-5.7358856 -3.5294356 18
-5.5225167 7 13.940287
-4.2221847 5 5.7542095
1.4701819 -5.8802462 19
-0.21648091 -5 1.3254251
0.43065763 0.90320629 20
-4.2078519 5 12.193094
-4.3391056 8 6.640029
3.5061388 -7 10.618555
-0.66868603 5 12.099566
5 1.7626095 9.4517784
3.3015308 8 7.1229897
7 -4.2656074 13.844367
8 1.0063658 4.2346039
-2.2684782 1.012398 16
-5 -0.23408294 6.6281376
1.9070019 5 7.5987449
3.4721735 -5 15.973462
7 -5.0335712 11.365414
-2.2139614 -8 3.5029776
-0.95972705 0.5 19.997688
-8 -3.239552 0.6182394
-8 -3.9689746 5.5490675
8 6.4480743 6.9610333
3.663506 5 7.4792318
2.8025656 -2.8901052 20
0.28379816 -7 15.607187
7.93959 4.0303411 0
-7.2263141 -6.0516973 0
-5 -3.0835633 12.471567
5.9969244 7 10.302029
-0.74544191 7 13.958787
-5.5961037 -2.5 19.737438
-4.2385788 5 5.1562872
-5 0.96060848 7.6556559
-3.2149696 5 7.1588345
-5.3434591 -1.5 19.308058
3.9012542 6.5889263 0
5 2.9483335 2.9088304
2.7223797 -5 11.774755
-1.6929337 3.5882182 18
7.7665582 3.9639006 0
7 6.4776125 16.166199
-7 -1.7098429 16.769077
-6.1126442 8 2.1272047
8 -6.7706151 8.270628
3.4109683 -5 0.71842766
6.3201051 -8 9.7081175
4.1685672 -7 13.253899
8 0.79442215 0.55865407
-8 0.13172698 5.4473944
1.9306571 -5 6.5666637
5 4.8922825 3.1543934
-2.7487621 -3.5 19.176325
-7.1603079 2.8369973 10
7 5.8649263 14.886198
-6.2881384 0.76801628 0
0.51300335 -5 11.379302
0.0054928064 5 7.0046525
-3.9972787 5 9.7240086
6.2078238 8 1.4983499
-8 0.25423422 4.4572821
-4.6775479 -3.5 19.892277
-7 -3.4400432 18.369753
4.947679 -8 4.9443855
-1.6890163 0.5 19.955017
3.9349961 8 5.9544811
6.1371102 0.022913054 18
-2.5912437 -5 12.450497
2.7713799 -7 17.390879
8 -1.8301067 9.0353794
-6.6287336 -7 15.901971
0.61449575 -5 6.1794252
-7 -6.6472464 13.145121
-3.0569818 -2.5521579 20
3.4164319 -5 5.0061789
-5.1536546 1.5151656 0
-7 -1.9956198 16.431278
1.9778306 -8 8.9256411
-1.9279499 -5 6.6316304
1.1309433 5 9.7956638
7.8051877 -6.9228373 0
7 -2.4265859 10.944809
3.1704025 -8 3.5037134
-0.081390381 6.9413209 0
-5 -1.6884763 5.9768467
-8 1.7061139 2.4198539
7 1.0172741 16.387571
-1.4270163 -8 1.260119
2.3637459 7 11.36499
-4.4959083 3.5 19.293051
-4.505024 5 15.957737
5 1.1464896 3.6722178
8 -7.0647345 6.7766871
-2.7416754 4.322669 19
7.0964656 1.120995 0
2.7624416 1.0599251 16
-4.6495996 6.1312737 19
-1.5 1.6206133 18.680437
0.20145297 -5.5 19.610823
-5 -2.3679557 5.549366
-5.5569763 8 4.8965788
6.2882338 8 0.30073047
-5 -3.2463579 5.0096846
2.0596955 5 6.2141881
-1.4661443 -7 11.697117
8 -3.0674343 0.94720173
7 0.052271754 16.125702
-4.4169183 -1.7046449 18
-5.5016508 7 10.612757
5 -1.341946 15.735813
-7 6.1385775 14.956547
-6.9759932 4.9872022 0
-5 -0.53294814 1.2838631
3.3189464 8 6.9247937
0.033762477 6.3861923 18
8 0.061906815 2.8340948
-6.3878055 -4.5 19.605101
-2.1705856 -8 3.2857759
2.3201091 -1.5 18.599716
-7 1.0122378 19.872993
-1.0068451 -5 4.8636875
5 2.2983999 11.19487
5 -1.4234277 6.7221708
7 0.7462284 10.09791
-0.8517139 -7 14.790322
1.9399834 -5 7.4805613
6.749835 -7 12.492064
-8 1.6926844 3.4282434
2.8712115 -3.957809 19
-1.3853347 -8 4.1960516
-2.5 5.9195509 18.558498
5.9174347 -4.5 18.713585
-0.19178641 -8 3.5037229
6.5086174 2.5 19.0933
6.1441035 -8 2.186424
3.824955 7 16.552731
-8 3.2142012 9.6384058
-6.4682474 0.5 18.617264
-8 -3.2074695 4.4990301
-5.9122553 -8 8.2501936
8 4.7806282 1.2282274
0.5 4.2796812 18.677126
-4.104763 1.5551107 18
3.8711207 -3.8505383 16
0.23228717 -5 8.2350559
8 -6.8815441 0.15494773
4.1101084 -5 6.5486565
1.7930712 -1.5 18.184811
0.54057038 -5 3.8890467
0.32836628 -5.5951247 18
-7 2.8907869 10.547775
-6.6109476 6.2039356 18
0.65778327 -8 7.3042259
-4.7067657 0.5 19.680489
1.8042767 7 13.918681
7 -6.1808586 13.040827
4.5 6.4871583 18.937973
-5 2.3900476 2.3126507
8 6.7878904 4.0372686
-5 3.0150671 9.4862204
-8 -7.6295042 5.2195954
3.5940468 5 1.544589
-7 -1.6567957 15.013601
-6.2144594 1.5 18.149277
-1.8932383 5.5 19.185656
5 -1.9517529 14.906865
8 6.4817705 1.2095926
-3.3059518 -5 0.64439487
-1.6794182 3.8599606 18
3.955487 -8 4.4533844
-5.6294122 4.5 18.579788
5.1995339 -4.4070849 19
1.7048942 3.2667041 16
5.3854074 -7 16.16032
-5.5466814 5.5 19.530216
-0.24020755 -8 3.3868046
2.4228463 -7 12.187084
-5.5 -6.0865932 18.595745
-0.18333125 -7 11.167265
-6.1406364 8 3.288476
5.069139 7 11.284536
-5.1217041 8 3.1584342
-5 -0.16884756 15.055426
0.078033358 5 15.352014
-5.825789 1.5 19.991541
-7 -0.80381799 11.168322
5 4.1973243 0.87792569
-6.0815563 -7 16.98381
4.5 1.8368438 18.429859
0.94834226 7 10.680368
-3.4999998 1.8310533 18.772396
-5 4.9527893 12.918729
5 -4.8904705 4.2161107
-5 0.80705261 6.3271132
0.024050713 -4.0306234 16
4.3519239 3.6196067 16
-1.9262233 5 5.0605335
5 1.8345327 2.9025457
8 -4.835094 3.378572
-1.9589086 -5 5.6135445
4.0888128 7.3147173 10
-4.1094599 7 15.98597
-2.6478333 -1.3487657 16
-7.9281564 6.5150976 10
-0.68873239 2.7033222 16
-8 -7.8177891 0.51263982
5.2326021 -8 3.6388257
2.7020993 -8 7.1935868
3.275497 5 0.64855415
-2.6838942 -8 4.7058315
-2.8500566 -1.9430151 16
5 -2.7878273 8.499094
6.498157 -0.5 18.017088
7.1647463 -3.5061812 10
6.7413082 -7 13.951022
-7.4990845 3.1487799 0
3.9126937 5 0.97845715
1.9903064 0.88930058 16
-4.1662455 -7 16.875683
-3.6922531 -8 4.6767683
3.1116242 7.0000005 10.998592
8 4.9242015 8.1937943
-6.6968174 -4.5 19.852732
-0.40620399 -0.5 19.753269
-7 -4.546114 18.713577
3.099124 -5 9.5011005
-2.7528927 -8 6.5177941
-5 -4.1853943 14.677444
-2.7607615 5 12.988797
-7.6822686 -8 3.4769008
-6.9044881 3.5 19.391043
-1.2934971 -5 12.835323
-1.5 -1.9576774 18.241619
-3.2645664 2.5 19.990509
8 -6.6362376 1.6277173
-7.8161049 8 2.6591792
3.9982581 -0.96025795 20
-0.3469193 8 2.4287601
-8 -2.8694315 9.2130404
-5 0.72042704 11.139368
0.12714219 -5.3315153 0
7 -1.9205537 16.719852
-1.5331173 8 9.7092018
-0.074203968 4.9926052 20
-6.826879 3.5 19.665318
-0.92474598 3.5623496 19
4.3363433 5 2.3814218
5.9400172 4.9361315 20
-7 3.4238124 11.876768
-0.5 -1.5891132 18.052517
3.7694931 -8 6.5483603
3.2543988 -7 18.506577
8 -7.5805001 0.36800653
3.0017879 -8 9.5744648
8 6.4847383 0.5822866
4.465435 8 0.97327411
5 -4.2440901 2.9461477
8 -7.4632878 9.8563108
2.2087159 -8 4.2935123
-2.7336073 -5 7.1791053
5 -4.7392282 2.7403586
8 6.5366926 6.3712039
-0.94710064 -5 12.957015
5 1.320788 14.603914
-2.5747793 -8 5.8107557
8 -4.8637657 3.4851432
-0.52425832 -7 18.291496
-5 2.0304418 8.1375866
-7 -0.56975055 19.916342
5 -3.5872331 2.0427608
8 -3.186974 7.6768084
-2.4758191 -7 17.082436
-8 3.6219614 9.7713585
-7.8347025 4.2348666 0
-7 3.6150594 10.546043
7.4187584 -4.955637 0
-0.92047501 5 15.707447
-2.9212055 -3.0848491 16
-1.5028919 1.5 18.907066
-5.2845397 -5.5 19.772484
-8 -3.6797948 7.6409383
-3.311192 2.5 19.577219
2.0195708 5 12.368401
6.5940671 1.8388435 0
-7 6.1563272 14.155871
8 -7.5350146 4.625524
-2.7671576 -5 3.7597632
-4.3447161 7 14.764995
3.588588 -4.5 19.969318
-2.4358747 -4.5 18.880459
6.0711107 1.5 19.541206
5 -2.4711237 1.2450063
4.3436146 8 3.6918962
-7.9741201 -8 6.5562916
7 -1.0390918 16.435402
-7.3082781 -3.7921193 10
-7.0000005 0.81731427 16.767773
-4.8927121 -7 15.396386
7 -0.65922266 13.81941
2.7533791 -7.0944281 10
8 0.3426626 5.3552203
-0.4281919 7.1655378 0
-3.3112974 -4.5276327 20
5 3.8011026 3.5922744
5 0.67499012 13.958969
7.3863606 -8 5.5141053
-7.7822614 -4.619885 0
5 -3.116004 9.7739706
-7 6.5640035 14.733919
7.39148 -0.71950555 0
1.7238141 8 3.1030631
4.7879014 2.5 19.568338
8 -4.5437913 6.1940398
2.35321 -0.67981243 16
6.7005696 3.136651 0
8 -4.5331826 8.0114212
4.3744988 7.5409994 10
6.4491444 8 3.3644068
-7 -4.8090725 10.863827
3.6541319 -5 11.092021
7 -3.0826445 17.535393
-1.7055817 5 9.5471115
-5 4.432374 13.039456
4.2632685 -8 4.4432616
-2.8532014 -2.8437152 20
-2.8320084 5.2859955 0
8 -2.2265575 5.6050653
7.1623173 -6.8796854 0
5 4.493834 12.878498
7 6.6640906 11.163012
1.503839 -5 4.6266937
-5.8527966 -7.7588987 0
8 6.9673243 6.8997679
-0.52154875 5 8.9244652
-7 -5.3249712 13.196295
7 1.0731101 14.589317
5.5 4.0379291 18.851665
-6.0958347 8 4.6676054
4.4439831 5 15.782726
5 1.6991292 2.3401492
2.0870957 5 9.6323051
4.8363552 6.9999995 10.649151
-1.3073239 7.9986768 10
-8 -3.9995863 7.9780598
8 -4.0021048 7.2162929
5 1.512019 5.4932585
0.53081161 6.4011745 19
-8 0.12340546 0.91171098
7 -4.2305307 11.636635
-3.8043604 7 10.572142
-1.4975083 -3.5759709 16
-2.6776457 3.5 19.474003
6.3790312 -4.2186489 0
-7.4703383 1.5153053 0
-8 -1.4678895 5.9019537
3.6093898 -5.0165973 20
-3.5711679 -8 7.2871208
-6.6445665 -0.5 19.888035
3.4681721 -5.8982019 0
2.3683524 -5 6.7528849
4.5 -6.1057334 18.95697
8 -1.4201725 5.0368853
-1.566198 -2.4266582 18
-3.1789525 7 10.427346
0.03280592 -5 8.769578
-2.3836582 -1.5 19.176786
8 -5.6645498 4.0503187
-1.3844962 -5 6.312644
-5 -0.93928283 5.599843
7 4.7110438 11.977681
-2.115438 -5 14.571568
-2.9077668 7 17.521206
5 4.555387 1.6053697
1.0595486 -5 2.0789442
-4.2469935 -0.5 19.712412
2.8251162 5.8022356 19
-6.9999995 -2.1272283 12.984832
4.3161316 -4.5 18.672737
-1.9571579 -0.6121974 20
8 0.33968639 3.7314487
5.6601448 -8 5.1194792
-8 3.0887349 1.0869547
1.9259231 5.8806992 0
1.9763372 1.7768869 16
6.1829381 -5.7295532 0
-6.325963 7 16.736958
8 7.3679886 0.12975574
0.57465565 -4.9006472 20
2.5445962 4.7539639 16
7 2.8056226 16.240183
-3.8784351 8 8.0435829
-7 0.82726622 17.49259
1.1269982 2.5 19.311388
-1.9456534 -5 13.348198
5 -1.3867376 11.497472
2.9281015 -5 8.0008125
6.8021607 -1.5 18.716965
-3.628391 -0.79844564 20
-8 -4.125627 3.5462286
-3.3677659 8 0.9204942
2.5999274 -7 12.605364
-6.9715881 8 2.6157026
-8 -4.4951706 0.98701519
-7.1768003 -7.5776029 10
-8 -7.3309107 3.7673602
-2.5362339 -8 5.3436422
-6.4338827 0.5 18.043236
5 -4.2170153 0.56047463
-3.9163687 5 9.4566975
3.1959555 -2.0429521 19
-3.1279554 7 13.01211
-5 1.742739 1.7201262
-3.4135334 5 5.392467
-5.4373493 8 5.5727396
-4.1797557 -5.4834628 0
-5 1.5094898 4.4316397
1.7049041 -8 6.3364878
7.2143536 6.6028147 10
0.67304647 5 15.253501
-5 -3.8502369 0.96236992
-0.024099939 7 11.59853
-7 0.52963912 14.73567
6.7862134 8 8.1989183
1.4411619 3.5 19.416573
6.0050087 8 3.2585745
-0.5 4.257494 18.536093
1.7071419 2.5 18.232542
-5.5 5.7916708 18.585209
-2.4667757 3.8857751 18
4.9201574 8 9.0734577
8 -5.7532225 2.5697441
6.2709494 -5.2913604 0
-8 5.0555787 8.8468609
1.6148862 7 11.350897
6.9288573 1.5 18.488302
-5 -2.4022102 13.492558
-7 0.96091855 19.963196
-4.9725637 1.4052675 20
-7 -0.60053003 17.31526
4.6113005 5 8.0842123
4.0643921 7 16.928713
-1.4497089 5.5 19.313631
3.6144869 -4.5 19.579924
-2.9294007 7 15.88583
-5 2.3429544 1.3316345
6.8113904 5.5 19.785809
-8 5.759995 6.9321828
-7 0.73564982 19.122549
-6.171957 1.5 19.117424
-2.4171154 2.5490079 20
-2.5 1.6204402 18.472118
0.34210676 -2.5 18.390232
-5 2.7496939 0.22917175
-1.2376593 -5 2.4881191
4.1181054 -0.5 18.90733
-1.8655427 -7 13.530001
8 -7.1231122 7.6150446
-3.4850349 8 0.69089293
-5 3.3982935 2.1723375
7 -5.325738 14.253468
-3.0944614 -7 16.438305
-3.1509161 8 8.6019773
-0.5 3.6743531 18.761242
-7 2.6563883 18.816833
8 -4.2769508 4.7567272
-5 -4.6911812 8.2366505
-5.3857899 -7.1310139 10
-7 -0.85915524 18.011684
-3.8738697 1.3713496 16
8 -1.3616892 4.3804884
-2.5000002 -5.8289261 18.056534
5.5660782 -7.0549736 10
7.8401279 8 9.2739305
-3.871712 -5 13.860831
-7 -6.6486721 14.436227
0.86200988 5.8274779 19
6.1514692 1.9129928 0
-3.8213179 -5 9.6912346
5 3.7344012 9.1667099
-4.5 -5.6170001 18.676125
3.1054513 8 1.0772324
4.4803114 -8 4.040019
-6.3671832 1.5830352 0
3.5911503 -5 0.44198132
2.5 1.7298007 18.348431
-3.8473082 8 8.9590683
-5 2.5298877 14.296266
8 5.7206869 5.4603376
-7.455307 -7.9255924 0
-6.0421648 -5.3277154 20
-3.0938339 2.0032187 16
-6.7417822 3.5000002 18.173096
-1.4927442 5 2.8870301
-7 2.6548343 17.284502
2.3123665 7 10.759569
5 4.372241 7.6982269
-5 0.49244976 11.04817
3.6078844 5.5 18.153353
4.1819754 3.3378496 16
8 4.5641942 9.6709337
-8 -6.4672537 4.7857838
-0.5 6.0439768 18.321133
-1.5 6.0674181 18.356829
-5.5883131 6.9999995 13.225995
2.8285933 -8 8.7011261
-0.96271157 -7 18.983469
4.6681967 -7 10.375156
-5 0.41447568 0.28363895
2.130167 5 7.0533652
-8 -7.7512426 2.4404757
-8 0.80326772 1.861768
8 -3.9238133 6.5427575
-1.0124178 8 8.9342594
-2.7377074 -0.4548758 19
1.4313266 8 2.7627826
3.7990608 7.4411693 10
7.2131734 7.4223781 0
-6.8227177 -5.5 18.391325
7.3940234 8 4.2435875
4.4408512 7 11.355867
6.4137015 -4.5471892 20
-5 1.4593854 4.3928032
8 -4.795341 2.3585658
-8 -3.9723735 9.5285282
-0.3738718 -5 14.176798
6.9999995 -6.3792644 11.202435
4.3125591 5 14.483029
-0.44492868 -3.5 19.246027
5.370697 8 6.4799776
5.6474519 -8 7.9184852
2.0039492 3.6206183 16
-5 4.0379601 11.528973
-0.5 -0.27410692 18.595945
5 1.046365 13.427152
-4.1571326 -8 1.6943742
5 0.44994938 3.5704894
-8 1.7129378 9.2253075
-5.22577 8 5.19452
-3.9610832 3.767772 16
-5.6061983 2.6509285 0
2.8760195 -5 13.032753
-8 -2.4651232 3.6656423
-1.1497581 5.4735126 0
-7 -6.1748562 14.391659
-3.6767921 -5 14.148473
-5.4961605 4.0412264 19
7 -1.7628232 13.390091
-8 5.6619792 8.6159744
-7 -3.0139055 19.073563
-8 3.860841 2.8972394
-0.54727364 7 12.515457
6.8448057 0.5 19.372547
-0.41014892 -4.5 18.747953
-5 -4.1522431 4.9853821
-5 2.0535922 3.1169271
5.3946447 -0.19490674 19
6.1248903 -8 4.6760774
-5.1107879 7 11.299055
-5.0574732 7 13.737718
-7 3.0809152 19.789625
-8 -3.7984819 0.012214989
4.2187066 1.5 19.354004
-0.060130358 -7.3057814 10
-1.4260464 8 4.7433133
8 0.24443913 8.3374004
-2.715786 8 5.957942
-2.5336614 5 15.088335
-0.84531349 -8 7.9861145
-1.0411835 -8 0.49179795
-5.0915289 -7 13.194511
5 -0.030094028 10.967678
5 3.1176815 9.5158138
-3.4722724 3.5814118 19
-7 -1.9241205 13.529622
-6.9192615 7 15.939846
8 0.87674141 0.97854012
5.9246736 1.5 18.817654
-7.0000005 -3.8843322 10.627699
-5 2.0289087 5.6619334
-2.5 1.8859954 18.092718
7 1.4934872 13.36566
0.82242274 -1.5461774 19
-2.3306456 -7 15.75497
-1.1924685 -2.5929682 16
-5.8083797 -2.5 19.246803
1.0943842 -2.3847079 16
-3.9342484 7 14.577425
2.6289532 -5.4999995 19.216007
8 7.6077023 7.0588593
5.9947605 -7.9683747 10
-2.417202 -3.5 19.197155
8 1.2041664 7.8940849
1.9759907 7.4764814 10
-7 2.3016918 17.36194
1.5 0.099432632 18.22698
1.7897096 5 2.8138237
-6.4403181 -4.5 19.899403
3.5 -2.3134313 18.890625
5 3.58111 8.8021669
2.1974735 5.5 18.944901
1.925441 5.7243509 18
-5.6097631 -6.0270767 0
-5.7184892 7 12.156767
2.80616 2.1502159 19
-0.11678648 8 3.1982172
-4.7253528 -7 10.048864
-8 7.7683144 7.0808921
5 3.4011643 11.277933
-6.8730211 3.9609966 0
-5.1006474 7 11.654791
-2.487587 8 7.9804683
-4.054512 7 12.70303
6.4770346 -7 13.386414
2.2139001 3.5 18.411678
-4.6729565 -2.0715344 19
7 -0.43307981 14.30171
7 4.8713279 12.235423
5.2967525 -7 16.834946
3.0173473 -8 8.5509405
8 1.0797226 8.7863588
8 7.1592455 2.4014328
5 2.5249081 12.852057
-0.78550911 -5 14.806344
5.0098438 -2.0297103 19
-3.1490648 5 7.3086758
7.1839643 -3.6900001 0
8 -3.8383849 4.6645656
8 -7.4805975 4.6960831
-5.2371473 -1.7160776 0
5 0.87987065 8.949152
6.8082385 3.8110695 0
-4.7714128 5.0000005 1.8877299
-3.5 0.14997797 18.407465
1.7287998 -3.2670236 20
3.2677941 1.1165543 20
-2.6500061 -8 6.8629827
3.5480824 5 15.952688
-7 0.13005888 13.100007
0.99259132 -7 14.436142
-1.8146729 -8 8.5757666
7 -6.0110445 13.561455
