# .PCD v0.7 - Point Cloud Data file format
VERSION 0.7
FIELDS x y z
SIZE 4 4 4
TYPE F F F
COUNT 1 1 1
WIDTH 1999
HEIGHT 1
VIEWPOINT 0 0 0 1 0 0 0
POINTS 1999
DATA ascii
7 0.83152902 18.594564
5.1863041 7 14.757961
-3.8224654 -7.4486938 10
4.8424072 8 8.2872763
-3.8196456 -7 12.370877
1.527624 8 4.0528994
-0.71717548 8 0.87255359
-7 -6.83776 14.34903
7 -3.188297 11.332084
5 -2.0850422 10.947934
4.6137061 -8 4.9140081
5 3.8842022 1.1160095
3.6968119 8 8.7232742
4.5781231 -7 14.568813
1.550066 -5 1.8351297
8 3.6219614 7.4923673
-8 -4.4001641 3.902874
-5 2.265285 3.2834568
-8 -3.7629833 4.1875863
6.0410118 6.2238569 0
7.0000005 -6.446856 16.175234
-3.5322726 2.3857207 19.535612
4.830997 5 3.6402619
8 4.2255011 2.7001283
-4.599721 -6.5324554 18.32634
3.4445171 7.7867961 0
-8 -1.6376119 1.9468268
-5 0.19483948 14.96885
4.2302513 -7 14.880493
7.2232842 7.0594711 10
5 0.9562428 6.870409
2.7276328 5 0.49087542
-3.8045907 5 0.88664949
-6.3279223 -1.0013783 18.933029
2.7087915 8 9.2218714
8 -4.3436146 5.9771371
-7 2.1674857 10.01413
3.0442524 -5 13.70754
-5 2.4884582 11.067551
-5 -3.3789792 2.4644527
-5 -2.4636893 5.2072268
-0.22573709 -5 11.338828
-5 -2.0341482 12.765482
7 6.6313896 14.091084
-8 -3.3271616 4.5759068
4.7236729 5 11.78434
6.3259616 8 7.7548285
0.96104687 8 1.2756443
-7 -2.6031919 14.816568
-8 4.4021463 9.9287281
-4.7883644 8 3.8912683
-5 0.91739893 11.34937
-8 1.2696979 9.7083626
8 -1.7238141 7.0256791
-4.8905272 -2.3910623 19.232965
7 6.3105588 14.820683
7 3.2416687 14.957146
-8 -5.637979 8.5028496
7 2.6950896 16.939119
-5 -0.40999508 12.381142
-4.9659772 7 13.722672
-5 -3.9363799 12.570555
-5.24541 -8 3.0674868
5 4.4192381 10.859171
-1.9271727 7.1982422 0
-4.1312537 -8 1.85034
-7 4.3575869 15.743796
1.5628492 5 11.260801
-8 5.7120366 0.45201916
7 -0.55057323 11.744084
-8 -5.6855526 1.6231744
-4.0686326 8 1.9509387
-3.8215518 -4.9999995 2.3260248
-2.2205515 -8 7.1083164
-8 4.1423836 8.9504919
-4.3780417 -7 12.144275
6.673337 0.49218464 0
-5 -2.2334995 9.6074104
0.73664784 -5 14.143538
5.9244766 -2.0461607 18.979233
1.2984248 7 11.039555
7.2364388 7.8739338 0
-5.0587559 8 8.5374069
4.4868951 -6.1939425 0
5 -3.0198405 14.701699
-5 0.81790447 6.7125235
8 4.7648954 2.5002584
7 5.2012596 15.90401
-7.9124889 8 6.5667133
-0.90498877 4.2589259 19.517929
8 1.3353319 0.91171098
-2.9542065 -5 4.9186449
5 2.3853536 3.0391507
7 -6.2837811 16.594049
5.9209428 3.9799447 18.678736
-8 5.5309916 5.3520255
-8 -2.0449665 9.0185089
8 -1.4678895 8.1806154
-0.16597366 5 3.8749833
-7 -6.204298 15.666204
-4.6354995 5 14.791734
-8 3.0736639 4.4910097
-7.5779448 3.3673089 10
2.5769587 -5.1580768 19.14716
7 6.5994816 13.866057
-4.3380189 -3.6046004 16
5 2.55685 15.145307
7.5480986 0.50439072 10
-4.1133385 5 4.2472382
7.0000005 6.8263183 13.054509
-1.6097341 -7.3945403 10
-4.0969906 -8 6.5000982
-2.5278988 -5 15.502995
-2.762434 7.3777332 10
5 4.4015064 3.1727049
7.1060114 8 8.996644
-0.38366646 -8 8.7006598
-2.1241066 5 15.318758
4.8548045 -2.2854083 19.253983
-5 -3.2517173 7.2330837
0.11130071 5 2.9418883
-1.7156944 6.8719177 18.698612
0.73937321 -7 11.293526
-7.0000005 -1.3689909 14.471863
8 -1.3496072 1.0869547
-8 0.9544096 1.6417301
7 -6.7703609 12.464903
-8 7.4818459 5.5908446
5 3.4211955 8.8102741
0.18567599 -7 18.276615
0.99352598 5 7.3432508
6.9999995 -5.1089921 11.929882
1.8427538 -5 12.480364
-2.4578311 7 12.250115
-5 3.515697 1.0148191
-4.2202859 -0.9494673 19.52331
-0.46124363 8 3.0543466
6.7213082 8 2.8140802
-7.499949 4.1849117 10
0.75571924 5 13.889716
2.3607988 -1.0735137 19.820967
8 -2.3260343 2.4214833
8 3.3677659 8.0253477
3.3691325 -5 8.1798849
3.7879469 7 10.561448
8 6.0743952 0.98701519
-5 4.7137127 9.6997089
8 -7.3309107 6.6508198
-7 -1.9092985 12.982874
-0.93902946 1.8023529 19.883492
6.1867495 8 9.649703
-4.8181486 6.5519586 0
-1.9595561 -0.42951918 16
5 4.2512913 9.9757805
-2.7883828 -8 2.1821818
6.0110874 -3.4727411 0
0.31932375 7 11.399046
-8 6.5100489 1.4860959
-6.8468237 -8 7.2302251
-7 -6.9818373 14.682069
-5 2.8564663 4.1285553
6.235352 6.7019143 0
6.1603794 -8 8.2487555
5 1.0876582 12.80294
-5 -2.3700662 2.3207664
-6.4503312 7 16.818272
4.3577456 1.1996446 19.477547
-6.1675315 7 13.608744
2.5749378 -2.7859812 16
-3.5529299 -6.3102355 18.641077
-0.4314622 -2.6255183 19.81337
4.6677551 -1.4744952 16
-0.050273005 7 17.053595
1.9816289 -7 17.674189
-8 6.8804698 5.6550412
8 6.1549778 8.1597366
5 -1.9374931 8.3981943
-5.6919127 -2.2983265 19.024326
6.3509789 -8 1.5671513
5 -0.57483435 8.6253023
-4.4993696 -0.57910347 19.473675
-5 4.4696608 1.3694832
-6.3676004 -1.3149672 0
5 2.7038548 2.1425743
2.2375476 -6.7560086 18.685143
4.8321819 5 6.7212133
5 2.3572872 15.614535
-5.0803614 -8 9.1677284
1.5377183 5.5576692 19.147614
8 5.3314972 6.9321828
5 0.61274898 3.2492042
0.92665482 0.53478408 19.967949
-6.6356678 -4.7503371 18.255421
-0.27881718 -3.7955976 16
-3.4210677 5 6.2437119
-4.3995099 -8 2.1070738
-4.4683738 -8 8.4449253
-1.1810515 5 14.517284
0.71613067 -5 2.0858078
6.9632578 -7 12.178007
8 3.4850349 7.8690395
-5.4372687 -8 0.24399613
5 0.31683391 13.013917
-0.207964 -5 3.1233892
-2.9212945 7 12.647295
2.6124263 -3.2564654 16
5 -0.91582501 6.9631071
2.0769377 -7 16.605347
7.5058899 -8 4.5432749
-5 3.7534113 4.0907669
5 -4.9415774 5.6530066
7 1.7517639 14.581696
1.2651589 -7 18.496183
-6.1057348 4.6385932 18.464558
-5 -4.0150366 15.303635
0.36836064 7 18.100775
-5.4412661 7.2465267 10
-5 -2.6578131 7.1275454
5.0593433 -1.6170024 19.267952
-8 -1.2117578 4.2384768
0.19465578 8 1.1786819
0.85824847 8 4.2708063
6.0006623 -3.1465325 18.804085
8 -3.1054513 4.1363254
-7 -1.0922594 13.528955
-8 -1.0859628 3.164088
5.3038588 -8 9.7237616
2.7019925 -0.7823053 16
-3.725894 7 12.267109
-8 2.3440857 7.5298877
-2.8250368 -7 12.721032
-8 6.8094792 9.5918427
-2.5929863 5 2.7565536
7 0.76343066 14.452272
-4.4741273 -3.3430591 19.196053
-5.5108585 -3.7064645 0
-5 4.1056271 12.037866
5 -1.14305 14.480862
0.30177307 8 9.3722401
-8 -4.1639099 5.4924498
-1.3444524 -4.0246534 19.538891
7 -5.2456074 10.714544
5.917747 -7 16.425529
8 -6.4672537 6.1721826
-4.5848103 1.7886803 16
-2.3510799 1.4317098 16
5 -0.96750695 15.994982
-7 1.04787 17.597775
5 -0.53821003 8.5966158
3.5521505 -5 12.933129
-0.66316128 -8 4.4082499
-1.4525967 -5.8609495 0
8 -7.7512426 7.7149973
8 2.175561 1.861768
-2.9793208 -7 15.241743
-2.450897 7 13.814781
-4.548758 3.0741689 16
-5.8826418 7 15.456453
-5 0.58830738 11.837591
-8 1.0028579 9.8505678
3.6343188 5 1.8910098
8 -7.3940234 4.622323
5 -2.2640901 13.288266
4.5281062 5 0.67005545
-6.7278199 -8 7.254498
7 6.1647315 11.983837
8 -3.9723735 2.9887381
7.8860497 -0.48424482 10
5 -3.4969559 15.109846
4.8673673 -5.2844319 0
2.5397243 5 13.954131
8 -5.370697 8.123292
-7 3.8782198 17.857668
7 -3.9371967 11.412161
-1.9897087 -8 2.7943923
0.9594574 -2.7410688 16
0.898664 8 1.6080302
-7 4.8235531 11.480035
-7.3305335 -1.3893855 0
8 6.7604923 6.0705862
0.94139749 7 11.514556
7 0.13531794 16.751152
-8 1.5780218 2.9552701
7.5688782 8 7.8760195
8 -2.1349726 3.4592981
-8 4.2119026 1.009169
-5 -4.9829197 7.2166834
-4.0313406 8 1.3232076
4.9616041 0.41226417 16
-0.76238585 -5 9.6175861
8 5.6619792 9.9227619
5 -4.7712421 8.2224903
8 0.77474213 2.8972394
5 2.0753677 10.969086
6.6942444 3.7345238 18.465521
-2.4795344 5 2.5951278
1.6582065 -8 6.8841362
-6.4026747 -8 8.0519209
3.0026188 -3.9464488 16
-7 -2.0860248 14.084551
5 4.5204649 13.401891
5 -0.32785261 11.083594
5 -0.24272668 6.7053576
8 3.8180256 0.012214989
-1.57935 1.5919038 19.860088
-5 -0.17546463 13.173239
3.2354658 7.0000005 13.588966
7 4.4976959 16.920017
0.97072452 7 12.88485
5.1701112 5.739902 0
-6.7002115 -7 16.006409
4.0046749 7 17.922056
2.1224461 -5 9.6109772
5.0804729 8 3.1452012
1.495896 8 4.0526161
4.7227268 -4.1858797 16
-5 -3.4228134 6.4172573
5 2.4248078 15.138791
2.4314475 -7 13.991389
0.82737494 1.0103657 19.954853
-5 -3.1388123 11.766703
-8 -7.0918126 7.0289087
-1.1400462 -2.0672312 16
-0.79292488 -5 13.312906
1.7757726 4.5382257 16
4.9344172 -5 4.4900608
7 -2.6730022 16.596523
1.9136808 5 15.010766
7 0.60466033 13.411553
5 0.72178292 8.1448116
2.8399239 5 11.598459
-4.7695713 -7 12.354915
-5 4.6837463 14.026386
1.3569193 5 12.845513
7 3.0164626 16.812683
-5 0.2351861 9.7137251
-5 4.202425 7.0845323
3.2641335 0.99432629 16
-7.4724078 2.3359432 0
-3.9940467 5 1.5069938
-3.1343141 -2.0405664 16
-0.80216694 8 8.58111
2.9363148 4.4355493 19.266293
2.2412612 5 9.1929426
-8 7.5230713 4.8373008
5 -2.3040414 14.906725
1.9384022 1.5021594 16
-3.93293 7 16.981077
-3.3468928 -5 2.5472412
7.1677089 -6.9360232 0
-3.2779331 8 8.4011641
-8 -4.3817344 0.63489586
5 4.7514391 12.690417
3.9383049 7 16.753513
5 4.7061434 10.593942
0.76698208 -5 14.805466
3.4736218 1.2894194 19.650303
-3.2704401 -0.71534193 16
0.3771379 -5 12.114027
-2.2057209 -5 15.962328
0.78304935 -5 2.3301077
-7 0.15122664 16.01478
7 4.9929295 17.14204
-1.3131728 -7 16.178345
-0.89191055 8 1.9674641
-1.1822114 -7.9253964 10
-0.29710364 4.8013325 16
0.12320304 5.5552807 0
-8 4.4273872 9.6067562
2.9630942 -7 16.852312
3.4404311 -7 14.909245
-8 5.0223432 6.9532251
-0.94915199 8 5.8798709
-8 -4.1363525 1.4559729
-3.7515929 5.0685768 0
-1.4997796 4.4255762 16
-2.6702366 5 6.0242286
-3.4370472 0.68258691 19.677235
-5.8433781 -7 15.464153
6.1036358 7.5732956 0
-5 -1.7062123 4.5299244
3.2835402 -5 4.381381
-7 2.2999928 13.376801
5 -0.548181 14.016011
-5.2309794 -3.2372589 19.019831
3.2665949 -5 14.742501
-2.0792425 5 14.995391
-6.0145483 8 2.2122755
2.0854533 5 3.3505526
8 3.7903681 4.2445197
-7 -3.9206853 13.208545
1.1491838 -6.8950157 18.732048
7.641398 -0.50488138 10
3.0850465 -5 13.303879
5.3369703 -8 7.9662781
-7 -0.34557462 15.502834
-8 -1.9987249 0.55254221
-3.257863 -5 13.997665
4.3040013 5 10.098923
-4.6034236 7 15.698081
-3.9737153 0.7568475 16
-8 -3.3596256 4.4916196
-0.73288751 -5 6.3707533
-8 7.9538908 2.65189
-7.487257 -8 3.8493323
8 4.445612 4.2107272
1.5177895 -7 16.786964
-5 0.48044109 13.245651
-7 -4.3548241 12.308107
7 4.7911525 12.634805
5.1319509 8 3.3041911
2.0631595 -1.2526819 16
-5 -1.6049176 9.4682684
-5 -0.67457771 15.332256
7 -6.3623195 13.601202
-2.284111 -7 12.400346
-8 -6.3180256 3.9629779
-8 -0.13932425 8.6859684
5 3.51717 7.1611643
-2.7049727 -0.47410452 19.803892
-4.8507538 -1.9715527 19.288345
-7.2949786 7.9002948 10
-5 -2.9698052 3.9816856
-7 -2.9803967 11.867578
8 2.7711167 8.1556463
2.8276777 7 16.285099
3.1458356 -8 2.1710985
8 0.95482731 1.8880062
-3.1012111 -3.3390625 19.468098
6.9999995 -5.5511198 12.602777
5 -2.1919317 14.680668
8 -6.8881874 0.098632105
-7 2.533792 12.048912
1.817479 -5 15.294285
1.4601579 8 3.1527138
-0.70627344 4.2581601 19.525215
-6.9878583 6.9999995 10.865671
-1.7598143 2.7141714 16
6.382102 -2.3655181 0
0.31005561 5 14.201449
0.72511482 -8 7.2096734
8 6.8076906 2.2994163
-7 -5.9323974 14.382085
6.6335893 8 9.1347198
-8 -4.9448032 4.1891103
-5 -3.7674201 10.265983
-7.0000005 -3.3874555 16.148027
7 -2.6061299 16.39967
3.7626972 -3.4722743 16
-7 1.7812724 12.625067
2.3764515 5.0000005 13.617017
4.1113963 -8 0.025092097
8 3.7381353 2.1029005
-5.5981321 8 4.0009198
-6.0198078 8 5.3525686
1.169583 -5 5.7522287
-8 -5.4458833 0.98858774
8 2.7864399 3.8704026
-1.3575163 -2.0422647 19.836607
5 4.4973207 15.022523
8 1.1343081 7.1979213
-3.911288 -7 12.115322
-4.6751075 -7 13.325203
5 1.0016557 0.081507027
-1.2044632 -8 1.8228852
7 3.3178961 15.189945
-0.49587727 -8 4.9460073
-6.8914809 0.83027601 0
-1.618598 5 0.59630817
7.9152927 0.19396138 10
-2.4041259 -8 7.8174667
5 -3.7820315 3.4131417
-1.2052835 -7 13.329911
5 0.40320992 1.2290928
5 -1.976447 5.9262738
5.1829653 -7 17.978006
1.3486289 -5 15.599024
5 1.8729408 9.8367214
-0.92965078 -7.9735827 0
-1.5660582 8 5.356667
-8 6.1949215 5.6883087
-5 -0.074553013 15.580726
5.7429395 -3.0365477 18.900381
-7 2.8393903 10.43926
8 0.76073933 2.0998898
5 -1.563271 9.0697451
-7 -2.1688447 16.34185
-2.8722756 7 14.124989
4.1319685 1.1005234 19.535938
-4.0802341 3.8750768 19.184038
-4.7477345 -8 0.81134355
2.0959864 -6.324132 18.842884
-5.748436 -5.6411262 18.302397
6.0597844 7 14.04427
8 -4.4423094 9.1839466
5 0.89125234 14.961146
0.54183006 -8 5.8571415
-5 -1.8357828 2.2072163
-3.6082067 -7 10.678965
-5 2.1143627 11.917057
-8 -2.8896904 7.7529793
5.0504827 -2.023643 19.233727
7.2872791 -8 5.9323354
-8 5.5130701 7.5728621
-7 4.8590584 13.758683
-4.2957458 8 0.35118699
5 3.0920916 3.5475988
-2.2682672 5 1.5462166
4.3385429 8 5.5754328
7.6661105 -8 8.7295275
5 1.5476575 14.707795
4.0830741 -8 8.9367571
5.8999214 4.0468965 18.671717
0.7675162 1.2379334 16
1.5611967 5 3.9023948
5 1.5291032 11.475113
5.1065888 -7 14.178688
4.3949242 -5 12.020909
7 -0.42386365 14.394589
-8 -5.7980957 5.7826548
7.6662531 -8 2.3050792
0.48399234 -5 15.14477
1.3795722 -1.251713 19.902386
-7 6.9383516 12.228148
4.6425734 5 14.578235
-0.57726789 7 11.823965
6.5429049 -5.8498106 17.966284
-1.875819 -7 17.851969
5 -0.41033947 9.6690731
3.3906987 8 3.4394174
-0.023144834 7 12.442326
1.2475758 -7 11.235867
8 -3.8631904 9.4244776
7.9324813 -3.5762172 10
-3.8326092 5 9.520318
-5.541707 -1.087618 19.178648
-7 2.1904969 13.033754
1.2145574 8 7.4503927
-3.6860409 -8 2.2560842
7.0822954 8 7.0498157
-5 0.035078049 4.7072582
-7.9961143 -7.0708222 10
0.79146385 5 9.7057991
0.82336736 -5 4.375515
7 -1.2672102 18.323351
8 -2.2444403 8.4024754
1.7806427 5 8.3484011
-3.794513 7 14.971025
5 -3.9853067 1.7920125
7 0.43312156 14.402103
5 -3.8413653 15.057416
-7 -5.7771311 11.373012
1.0383691 7 10.561061
-7 3.0393505 10.330545
-8 4.3568711 1.1142092
-4.7945189 4.8341193 18.791826
-5 -3.3035698 7.2516956
-8 -1.8158889 2.1562786
-5 1.89008 8.3452597
-8 -6.5759406 1.6132877
-5 -1.158035 1.9442139
2.7664685 -5 8.3126678
5 -0.25628138 12.752897
7.9656658 3.3686295 10
-7.9854803 -8 3.3112564
-7 5.6886687 12.173299
-8 2.6216216 8.4212952
8 -1.4663715 5.5000529
-5 0.70753145 15.547729
3.6277235 -1.7241563 19.585403
-7 -5.4140892 10.28499
-3.9779963 -1.1543479 19.558096
8 -1.4499546 7.4304962
-2.7763314 -5 12.260057
-5 3.4499655 13.418464
-5 -1.102725 15.203296
3.9646161 -8 1.8157704
-0.014173031 5 11.699949
8 -1.9847794 2.4208772
-4.3983288 7.976368 0
1.7187476 -5.1096807 0
-8 5.4613771 4.8850398
3.8599491 2.0983539 16
-5 2.0120311 13.795867
8 -3.4563398 1.4697583
-3.6810396 -8 8.1661587
3.6163998 -3.7731907 16
7 3.5311582 14.597837
-5.1321216 -0.33423394 19.312996
7 6.6552505 16.030163
7 -3.9220948 12.542679
-5 2.1928635 10.517796
8 -4.4691143 5.0564604
7 -0.95254552 18.122908
8 1.213295 9.2218971
-4.3408699 6.4786444 18.406759
7 -2.1438708 12.357967
1.4121531 7 18.403177
-3.3902559 5 2.5110931
8 -7.0916543 3.325742
0.56109858 -4.6167984 19.443186
-8 -6.6760468 8.4163513
7 0.43541318 16.256083
-5.9613509 3.5851908 18.74074
4.747313 -5 13.414826
7 2.6882784 10.364793
5.4136672 -8 5.3101573
2.1669729 7 10.453041
5.1265087 6.6975079 0
-7.4456215 -8 2.3597012
-7.9049835 8 9.4449244
5 -3.9590414 0.88696724
-6.7685747 -6.1445379 17.780735
0.45545244 -7 13.629762
2.3244963 8 7.9096599
-6.2731299 7 13.558392
-3.3933229 -8 1.6843958
8 -1.5161459 2.8677461
-5 -2.1960855 5.2710371
2.5993633 -1.0014203 16
-0.23697984 5 14.164726
5 -1.3169203 6.1967297
-7 6.5804987 15.14443
-7.0907345 7.4832287 10
7 0.91328216 15.07273
-0.019073606 2.5215993 16
3.6578183 7.7423382 0
3.7573166 -8 7.1044965
-0.60210705 5 3.460808
-4.2147551 8 4.6480207
-1.4484291 -5 6.5357375
7.5606918 3.5406337 10
-4.9999995 -4.1313896 3.3744659
-3.8622816 -5 2.6940508
-6.680336 4.489336 0
4.0273681 -1.1449311 19.554867
-4.1612396 8 5.6770744
8 -2.9703138 4.9375801
-5 1.9043975 15.845902
8 5.3691387 4.7532659
-5 1.1767272 5.9635448
-2.4213381 -5 6.2356415
8 -2.3382025 9.1172838
-6.0898652 -7 17.38871
7 2.360477 15.215661
5 -4.4615231 3.2560289
7 -3.0359511 17.559517
-8 1.0594031 3.7002461
-3.1297102 7 14.266994
8 -0.13646221 7.1777325
0.71170843 1.3174274 19.943031
1.4475579 6.4109321 18.875843
-5.9459553 -8 5.7043314
-2.9834173 5.9006033 18.871357
-0.68489814 -7 10.770272
-2.1318014 7 15.549349
-5 -3.1494048 2.5356293
-4.3317099 7 11.351113
-4.6480532 3.6106393 19.110962
-0.029637337 5 3.0330558
-7 1.937469 10.222975
-7 -2.8771691 15.189767
-8 -5.4031844 6.7813067
4.7149372 5 9.2365389
-2.0790639 -7 14.870252
8 -3.5694678 7.5613551
6.5969229 7.1534357 0
-0.48527551 -7 10.217659
8 -7.6171474 6.1499453
-3.6158264 -7 13.978028
-2.2738047 8 9.7567215
3.2658632 8 0.6129694
-3.9558158 -8 2.1685822
8 5.881772 1.232419
-5.6716909 7 14.007533
5 -2.8348517 9.2203951
8 7.2594538 1.5726738
7 -0.32076341 13.138168
-3.0701704 -7 12.838554
7 0.75687975 14.177789
7.8209796 -8 6.9103241
-8 3.791224 8.2148485
-5.771327 7 16.690695
7.6751885 5.0407748 10
7.0947638 -5.3553929 0
6.5540366 -2.1847162 0
7 -3.8448272 14.60645
5 4.2442284 5.8400984
0.69744986 8 1.999529
-4.2868938 5 7.2519917
-7 4.4356804 14.768332
-7 -2.6708164 15.288662
8 2.8615658 8.0978041
-5.5409961 8 0.45467377
5 2.1387537 7.3152428
-5 2.1332798 11.920002
6.9782248 -8 2.2204881
-7 1.5967603 15.0879
-7.9985299 5.6548362 0
3.1311245 5 11.805412
2.2374444 -5 7.3502312
3.6332798 -4.0114594 16
-8 6.2237449 1.9802675
5 -2.1202333 3.7409251
3.719028 -5 13.306554
-8 -4.5773792 7.9292417
-3.3782158 -5 7.3070683
-0.64368987 -6.5308971 18.882881
-0.22347236 -5.368361 0
-0.54973483 -5.0680342 0
-7 -2.2015431 18.13171
4.4039936 3.6010089 16
-4.6282754 3.9260414 19.048271
-1.3985226 -7 13.943855
-8 -3.393465 5.9794998
4.2963228 5 9.0888777
3.8877792 -8 0.59440833
-7 -5.2524333 10.033514
-5 0.37191629 10.635374
0.51152283 5 4.7676735
-4.1274581 5 2.7259965
7.3666177 8 8.9364786
6.4442892 7.0683069 0
-7 1.4828165 10.291677
-2.2276459 -4.8711824 19.256054
-1.537153 7 14.200279
-0.61619139 -7 10.988146
8 6.3411798 7.4189029
1.3579135 7.7746906 0
1.8125558 -5 8.4336958
-3.7836185 -7.7514043 0
5 3.5098481 8.3472462
-3.1678562 -8 7.42873
-0.75128525 7.0000005 17.760677
8 7.3980942 4.1306329
-5 -1.0387775 6.9291868
8 -7.1356201 1.4470863
2.2464864 7.6720543 10
1.5712441 -0.26859057 16
-5.5519938 -8 3.0822704
5 -1.5149534 4.0132699
-6.5160623 -7 12.632691
4.8509579 8 5.1466064
5 -1.6969876 7.3594298
5 -1.6283945 10.280968
-0.24225998 8 2.2598486
-3.6850183 -6.2004094 18.651716
-3.7835217 2.8665209 16
4.780324 5 4.7661848
6.803658 -8 3.820322
-5 4.945158 8.4080286
1.0253916 8 3.1260591
-8 3.3929586 8.1873512
-7 0.10638118 13.001595
-2.3593066 5 7.7394361
-2.5596075 8 3.7512193
4.3609791 6.6942453 18.330732
8 -6.9975033 5.1897068
-8 3.6973214 0.74768913
4.7967935 -8 2.6951172
-6.5481281 8 4.6833949
5 4.86555 1.9171515
-0.19190173 7.0000005 16.674854
1.2564795 -5.9155016 0
5 0.47787189 9.6950464
-4.1437111 8 7.6416039
0.77601743 -6.037076 0
0.27103096 -5.869895 0
-5.5905581 7 14.065759
-5 4.4519796 10.850365
-8 5.0422959 1.7495252
-7 2.9007566 14.111715
8 0.48924351 2.9511759
-5.4551735 -0.065933391 19.230164
-3.186403 -1.9664695 19.632221
7.2854514 -2.7394166 10
-0.17320061 5 14.101531
-3.4533184 2.855597 19.488106
7.052341 8 3.4681706
-5 -3.3902507 13.382725
-4.6535487 7.9215193 0
5 -4.9862852 11.231627
6.029418 6.9514179 0
-3.5472279 5 13.497229
-3.7979827 -6.2188826 18.621656
8 6.1290617 5.6658921
8 4.6997814 3.3208804
5 -1.7122999 6.1140022
-8 3.914712 8.3753424
-7.219347 -8 5.8001113
-7.6056356 -8 7.9426012
-2.2640047 8 6.5594177
-5.3174458 8 4.0717978
-2.4245565 -7 16.350842
8 -1.540588 7.5072217
-7 -4.9975424 17.03833
-3.8249998 -8 2.684752
7 5.3856764 14.712824
4.4548559 2.2338026 16
-6.8135729 4.8876219 18.155853
4.214654 5 4.9586735
5 -1.1923766 3.8348627
-4.6080589 8 4.5350881
5.2251511 -7 13.22104
3.9771547 -7 15.964351
-7.981863 7.801599 10
7 2.9118919 16.39966
7 4.7533522 11.865631
-2.3797393 -8 1.3696369
8 3.3735971 6.0852985
5.5536327 3.5805225 18.862125
-5.2137313 -8 2.8637109
-0.64365911 -5 7.0861926
-8 -4.437211 1.4070293
1.3819425 -1.5111184 19.881762
-3.4937987 -8 7.1298084
-7.2197933 4.803658 10
-4.5612974 8 4.5476294
7.1527438 -3.7933989 10
-2.6709318 -3.6680758 16
-2.423475 5 15.692829
-4.5155945 5 4.2894416
-6.2702465 8 2.310313
-5.2742047 -5.097919 0
1.7820061 7 11.466566
-8 4.4113379 9.0686617
-5 3.8721542 0.29154396
8 -1.0455103 2.2603574
-5 -3.6013741 6.5926294
7 -1.6671313 13.731216
-0.91760612 -1.9549229 16
5 4.2578173 1.7617735
7 -2.6472495 14.371944
-1.6942623 -5 4.6895819
-1.0764918 -5 0.79415798
-8 -0.38272816 4.495316
-1.77852 3.6595476 19.571379
5 0.93805289 5.9576187
-5.3328705 5.8146644 0
7 6.5805941 15.572209
3.3397093 5 3.1804888
1.0539874 -8 4.9501023
-1.9494784 7 13.122707
5.8645482 -7 12.664482
-7 -3.2957277 17.473261
5.2065587 -8 8.8491058
7 -3.0810428 16.311159
1.5378575 -2.3698673 16
-5 3.4940891 4.7622046
7 -3.7123702 15.64533
-3.4588737 5 4.4540043
8 -1.6876371 1.2217541
5 0.40553772 3.3219957
3.2730646 -7 10.45253
-2.4691095 -5 11.109162
0.12483799 5 13.094677
5.7332468 3.1053371 18.892353
7 -0.31287995 14.429685
-3.6027246 7.0742898 10
8 2.5071535 2.821075
-5 -2.250463 7.3242989
-0.29451394 -8 2.6382694
2.4478853 7 13.231245
2.4996674 -8 9.4807167
6.7485113 -0.12538379 18.818434
7 0.33534861 12.842793
-2.1596456 -3.1497126 19.618301
-0.81782871 5.7218833 19.144445
-1.6492229 7 16.019321
7 -5.369133 14.51511
-8 6.0959477 1.8164372
3.2866764 -7 12.987099
0.40274239 8 2.2548747
-0.14262232 7 11.261889
-3.2865231 -5 4.4521933
7 -2.3474746 16.952103
-7.6526299 -8 3.8911297
-5.931901 -2.024287 18.979635
-2.32828 -0.95397264 19.829601
5 -3.8744235 2.6207979
5.7022223 -8 1.4495089
-2.7281356 -5 12.141722
6.361764 -5.5981388 18.109053
6.994482 -7 13.072124
-8 2.6042378 9.3816862
-2.106133 8 3.2703061
5 -1.8167646 11.985329
-1.6962843 -5 7.299046
7 -2.7625656 17.027508
7 1.4077346 15.399556
4.5722003 -2.274714 19.322443
-7 2.8334405 14.72662
3.6413436 -8 9.3015261
5.5726781 7 15.014732
-7.0000005 -1.0956949 14.225161
-4.3100524 -7.783896 10
5.2272253 -8 4.3457389
4.8880296 8 7.3483276
8 -6.8289399 2.7014744
-8 -6.348052 4.3573198
3.1862998 5 3.1302111
1.7089746 -5 3.6884537
1.6666133 -8 8.5440397
8 -1.6852961 2.7220178
-2.7543645 -5 5.2064977
3.6791999 -2.7690527 16
-4.1861038 -5 2.9551959
-3.4382553 -3.7237067 16
5 3.9198191 10.028176
4.8827109 5 10.524287
-8 -6.6801686 5.16676
7 3.2860575 16.549644
-3.9448886 4.0192113 16
1.0512595 -7.3399539 0
3.7695374 -2.4574656 19.482986
3.6470215 -8 0.021671224
-2.4211099 5 2.3302844
1.8922746 1.7817929 19.820374
0.59685397 -8 7.1943784
0.46318373 3.5112252 19.670256
-4.7998295 -1.1228194 16
-6.4580441 -8 9.697731
-0.8217687 2.6748002 19.798214
8 -5.9514999 7.1565127
-1.5215803 -2.9015715 16
0.80930495 8 7.6267586
5.4243155 8 8.8088055
-8 -7.275805 9.8097696
0.52901268 -6.1447172 19.015644
5.5656528 8 8.3168716
-3.8149333 2.9684801 19.394943
-2.4182267 5 5.4656172
5 -3.4376171 15.939407
3.0887599 -5 6.5351372
0.87318039 -1.7349936 16
-1.5556294 7 12.089729
-1.3002343 4.0457168 19.537552
-2.5530844 -8 9.3087902
-2.1710348 8 1.1189699
5 2.4875064 15.710016
-5 1.7561522 1.3285818
3.3085065 -4.2824926 19.241875
-0.89203835 8 3.4302604
8 -2.4714108 0.67678106
3.1450608 -5 10.512075
2.0859346 -8 7.1597853
5 4.5332975 9.857028
5.4637346 7 16.806393
-8 -0.35643876 8.2436008
5 -1.4923328 4.7122259
5.6033421 -7 12.078983
-7.4582753 -7.885633 0
-4.5225177 -8 4.3637085
-2.2375333 0.46734267 16
1.0135059 -7.8841305 10
-0.53158283 -5 9.3762436
3.4414456 5 1.4574401
5 -1.0240738 11.176589
5.5827994 -7 15.950087
-0.99556899 -8 5.7119141
-5 -2.3236804 1.2711554
-8 -6.4812889 3.2460964
-4.1470342 -8 4.6563153
-5 -0.82649207 9.422678
-1.15522 8 5.4914212
-4.2940927 4.2412229 16
-6.6210508 8 6.1531129
2.0620723 5 12.110527
-1.8134594 -3.7770019 16
0.6844213 5 0.42157844
-8 3.7295775 9.2811861
8 7.1581717 8.4814453
-5 -4.9291978 14.989083
4.41605 -8 5.5854735
-2.327529 -8 9.1765251
8 6.4068384 5.7186966
-4.066371 5 2.8193967
-7 6.3973436 17.160446
-0.47981995 -7 16.975176
0.50501144 -8 8.2323132
-8 -5.0766444 8.4705181
-3.0569344 5 3.5059161
5 -2.2308373 13.105761
-2.6170206 5 14.10089
-1.5078942 -8 9.473526
5 2.0363507 7.6786394
-1.8516684 7 17.258814
0.033268929 5 11.438916
-3.7552233 -2.5331607 19.475609
-8 -3.2934115 3.4804454
-0.36887443 7 15.063217
-5 -3.5122643 15.073306
5 -1.2741544 13.974315
2.3880959 5 12.553252
7 -2.4271197 18.268381
-7.5796165 -3.5500584 10
6.1938763 -6.9999995 17.279312
1.1479425 -3.7579782 19.597815
-7.4820786 -2.6935525 0
-4.7729368 7 11.429498
-7.0542097 -4.1674395 0
4.0997624 5 12.088889
4.736752 7 17.46587
-0.38465071 -5 11.561715
5 -2.7726753 11.322637
3.858613 -5 15.537213
-3.3908865 -2.1535299 19.581131
3.599715 8 3.0268621
0.31196564 1.5059228 19.938574
5 4.0820465 5.8221879
-5 0.25231838 6.0797586
5 3.046181 7.1393881
2.8551049 5 12.643907
-0.7576251 -5 9.5140104
7.1954536 8 6.8878546
-7 5.2653041 17.263132
-1.776732 8 1.4834619
3.0673223 5 12.086212
-6.7777061 8 9.3472023
2.1504602 -5.8330641 0
-8 3.6597958 2.1851642
-1.5035875 5 15.769933
4.9169517 7 12.987101
5.245635 7 15.830194
-3.4198835 -5 11.932867
-6.258153 -0.42841822 18.979824
-8 -5.819459 5.6447706
5 -4.4742098 5.1090317
0.93608665 -4.9669433 16
5.5084682 3.3991206 18.908401
-3.632298 -1.5364569 16
-1.3771696 7 17.50495
-8 1.2336074 9.4935055
8 1.1435108 0.71249533
1.9718385 2.6028104 19.722046
-5 4.397296 0.56483078
-7.7030139 -7.619206 10
-4.1091681 7 14.371638
5.373188 -7 16.908195
3.4339933 -7 16.893906
4.3025198 -8 7.8691316
1.7225763 -4.3395052 19.438631
5 3.1582546 4.9617143
8 -0.33969426 8.2531214
-7 -2.8996439 15.232574
7.9838738 -3.3869014 0
5.3322792 2.7577062 0
7 -0.38317773 12.416003
-8 5.0824704 0.46663201
5 1.476145 1.7812916
1.7349982 8 1.7136782
-4.641305 8 6.1097279
-1.0019927 -5 12.195004
5.0127735 -8 8.3913002
-2.4643703 5 6.6494751
-5 -2.3870931 4.9737272
8 5.8678045 4.4614239
-8 -7.6553483 5.6595421
2.6789098 -7 14.497072
1.7753136 -5 14.279326
7 -1.0989429 14.066344
-8 7.746417 6.843123
7 4.1906991 15.976923
-7.5613337 7.1864328 10
6.6135979 8 5.9595966
7 2.3593183 10.961851
0.016046505 4.6282759 19.449001
-7 -1.9077952 10.862751
0.79579169 -7 16.577166
-5 1.1377727 7.9995995
-5.0992284 0.015831292 0
-5 4.827014 15.390291
7 -6.9234447 13.011461
-0.12372668 -6.2741518 18.979408
-1.7343197 -0.785043 16
3.7372949 8 3.8196719
-2.511441 5 9.1063309
7.6505919 -3.8820612 0
-8 -4.5975361 5.2477336
-3.0837147 -7.0722857 10
8 -2.6352549 2.403723
-0.78127074 5 4.3012118
5 -3.9782505 7.1228914
3.6063218 -6.5413313 18.548092
-0.90584135 7 15.017899
-8 -7.6747627 5.9762735
-7 -4.92588 14.033989
-8 -6.3879805 7.2709522
5 -1.8051949 7.2367635
4.2102785 8 1.3746816
-3.2923317 3.921771 16
4.0197582 -5 0.97140884
8 -2.7965946 5.2014761
7 1.3101364 12.112299
8 4.7264152 8.0672798
-8 6.1369462 0.224557
-8 -3.6864738 7.0155983
1.3104446 7 18.158417
7 0.06552083 13.975401
0.1307987 3.2663927 16
-6.6861858 3.2324364 0
-5 -4.3262625 10.925301
5 4.0579939 10.808442
-7.9993744 1.0375096 10
5 -2.4749312 5.7454801
7 2.7147498 15.588666
5 4.4853148 10.884399
0.23217142 -8 9.3919172
-8 5.3370743 4.9685807
7 5.3829293 14.172209
5 0.25508684 4.5727558
-5.825242 -8 5.4007721
8 -5.251462 0.35158166
6.6529818 8 5.8612299
-5 0.5883534 0.51626873
-8 3.1435461 7.1150165
-7 -4.8280115 14.171824
1.4668453 7 13.542902
-3.5395477 5 9.8882008
-5 4.5872574 3.3520002
-2.019418 5 2.2405224
-7 0.17184114 16.955452
1.5760462 8 6.6068611
3.9546058 7 15.171848
-5 -2.3964229 0.14146233
6.1120019 8 8.4653711
7.9261436 8 2.9511583
-5 -1.5964737 0.86739731
0.42916703 -2.7110198 19.804001
-0.85878563 -5 12.821783
-6.2586889 -0.94727618 18.959637
-2.9332619 -5 5.829258
0.88247162 5 14.704484
0.14326954 -3.5291762 16
8 7.076232 6.5621643
-5 -2.0224009 14.66592
8 -6.2028141 5.9431329
8 -6.3195386 1.6181138
-4.1362677 -5 13.890553
-7 -0.81299746 15.15827
-1.3180366 -8 6.5395923
1.6834159 -7 10.030793
-4.9439383 -5 13.380791
-8 -6.4119172 9.9345865
5 0.51096487 0.10916387
-7 0.14146906 17.646002
5.2189193 8 4.9584084
2.9196217 7.0000005 11.87575
2.6428525 -7 14.733871
8 0.78355813 6.5282922
6.9999995 -6.2008586 10.319659
2.8068922 4.5308895 19.263229
5.900126 -4.8067207 18.483547
5 1.5392238 6.6044793
0.10536772 5 15.49625
-1.0123653 5 10.145597
6.4601593 -5.329792 18.153484
5.6362648 -5.740674 0
-0.81890726 -7 12.586589
7 -1.5126626 10.600953
4.7100616 8 3.4120858
-1.6302061 8 8.4063253
-2.613677 7 14.102221
7 -5.8963313 16.411455
5 4.6265273 15.09436
-5.689847 8 4.5454044
-5 3.0659084 15.336824
-7.2954226 8 9.3843994
-7 -0.55655241 13.167172
-8 -3.0475008 2.9868059
1.1665988 7 17.810375
5 -0.54093957 9.8312483
-7 1.5452652 14.796074
8 1.6426458 2.5023568
8 -2.8168547 0.98872966
6.6958466 2.011384 0
-1.5449245 -5 0.77659893
-5 -1.5892954 13.826685
7 -5.1410437 12.144142
2.7666721 -4.9358134 16
-3.178031 5.3703423 0
-8 1.4433273 4.5683999
-2.8676329 -8 4.6502771
-1.5555696 -7 12.08358
2.6276495 -1.4004514 19.776236
1.3441694 8 6.2473502
-5.2577553 3.8540039 0
0.88192451 1.3283994 19.932226
7 2.6348369 10.029003
7.0000005 -2.874656 10.110296
7 -1.3299932 14.29475
-0.27117538 -5 8.1072788
-2.0627222 8 5.4743896
7 4.7086773 16.801336
-6.3570786 8 7.190609
-3.4894092 -4.7884564 16
2.1352766 -8 1.6047542
6.9317722 -8 4.0287714
-5.9954071 8 2.4383717
-2.9790461 -0.59143448 19.76445
2.4873343 8 0.65860927
-1.7164422 -7 12.333746
7 -5.7256751 10.93111
-4.6238146 5 9.2569208
-0.46263289 -5 4.1914129
8 0.91257477 8.2695293
-4.5907068 8 2.4512966
6.3932343 2.8622923 18.724009
-8 -7.5951943 9.5788746
2.9520485 8 0.97068608
-7.0668616 7.9526024 0
-0.65786111 -5 4.5966396
8 -3.6178522 1.6214595
8 6.2417536 9.2964859
3.8524232 6.2115703 0
-8 -7.3780055 0.043172933
5 -2.6638422 2.2550457
4.3027711 5 2.2409847
6.8012195 -8 2.2488735
-0.20951724 -8 5.2085915
-7 -1.3779945 16.09446
2.2645588 -5 8.430562
-6.8305593 -7 15.441841
-0.6447134 -8 3.9819694
-8 2.5320647 0.64867735
-7 -4.8559813 13.757006
-7.0000005 -4.8252683 18.01631
4.0362058 -8 6.5014424
-7.0000005 5.3091006 17.564293
4.300899 -5 14.244275
5 -0.52701306 11.057225
3.2766721 5 3.7451019
-5.1246705 7 11.711116
-8 3.3500772 8.4855194
-5 -4.9887686 2.4212523
5 -4.1616216 5.6675773
-0.82816559 2.5471721 19.811443
-7.6542139 -8 8.7627802
-4.0363245 7 17.850895
5 3.9038057 15.027701
-4.4604764 7 14.259084
-5 1.6856546 10.929998
-8 -4.1524677 1.5847152
-3.9864628 -3.4294021 16
0.5957247 5 4.4504929
0.58773541 5 1.7121798
-0.80025768 -2.7860317 16
-0.39980555 7.8717074 10
-0.68823004 -8 8.1714487
-8 1.0029291 2.0855894
-5.5559521 -4.3943772 18.697582
-6.1254568 -2.372184 0
5 -3.4667439 7.6816959
5.8498411 -0.93632239 19.097666
-3.5604587 5 6.5828013
-7 6.4663835 10.424928
5.1607227 -5.4242954 0
5 2.867167 5.7952204
-0.21021152 4.5898676 16
2.2066743 7 16.395626
5 2.074007 6.6851945
-1.5512543 -5 12.752073
7.3302603 -8 4.1622267
8 -1.5380099 1.8523175
-7 -6.3591976 10.830837
-3.6277599 -8 6.8404064
-8 -0.22905314 8.5532112
0.34809208 8 3.1584406
-5 1.67278 15.673512
2.6748621 -5 1.1345987
2.7169847 8 2.2278941
-6.5803843 -7 14.180093
7.3620243 8 3.7566657
3.6439266 -6.0262356 0
0.61005688 -5 10.633999
8 -1.7172014 8.3485794
-1.7338438 4.9881549 19.276028
-2.1773725 -7 16.622532
1.1412363 8 7.2087102
4.8353996 8 0.6728971
-6.9999995 6.0242157 11.948973
1.4796019 5 11.693027
-3.4033127 -5 9.3198967
5 -2.7593987 12.169978
-8 0.28552544 3.4952114
-7.8355136 5.4464688 0
2.9445624 -3.482604 19.467417
-5.217555 7 16.319128
3.8595164 5.3278642 0
-5 2.0949881 0.69776821
-3.7783742 5 9.48911
3.4835281 -5 8.6049623
5 -4.6696677 14.89745
7.5168624 7.4843154 0
-3.0435743 -7 12.2504
1.3328648 -6.6471429 18.805439
-1.9413078 -5 0.77371216
5 -3.7126687 6.525229
-7 3.4339294 10.212959
8 -0.69446015 4.029438
7.1190701 -8 1.8000592
4.7370505 -1.4111961 19.365829
3.7543921 8 2.9686177
-6.0747995 8 1.9658941
-0.47845936 8 8.9548874
-1.0207679 -3.4625556 19.657475
-1.2120299 -5 1.1046848
-5.0860658 7 11.763227
-5 -3.3652377 11.054903
-5 1.5262432 13.258059
-5.4597569 -7 15.718889
-1.0367846 -5 11.274986
-3.15834 7.2524734 10
7 3.4665878 10.983813
-5 -4.9155374 13.741627
-7 3.838659 18.13228
6.3141551 8 2.1690612
-4.7968864 5 1.4227432
-1.9503773 5 1.7043835
8 -5.6798067 6.5012908
-2.8144677 -8 1.7838619
-4.3716974 3.0977964 19.255817
-2.5269289 7 16.743473
-0.010308755 7 15.23805
0.57376218 8 1.1043781
0.40809226 8 7.4838977
2.0834954 -7 15.195078
-5 -4.5162678 7.4828882
-1.039783 7 15.95512
5.0436134 -1.5052481 0
7 2.1257105 12.361508
8 -6.3925095 4.6069021
-4.0799689 -7 11.770619
1.0256865 8 9.7089157
5 3.3426778 9.6265841
-5.6881914 -5.3004799 0
1.9417434 -5 12.91877
-0.57645154 5 4.727282
-3.4646881 -0.30886495 19.68211
-5 -3.7051525 5.7982178
-5 4.8615799 11.826052
8 1.1864901 0.8312763
-7 -1.9289172 17.963203
-7.3129301 6.7564545 0
0.93895036 8 1.0635239
5.3536305 6.7197695 18.058357
2.1844678 5 14.038919
-4.1152754 8 9.3107491
-4.1033506 3.4773798 19.250572
-5 -3.6126153 11.05757
-0.15620136 5 13.40014
7 0.43823889 17.646921
-1.976016 -5 11.465189
-0.67012703 -5 2.322752
5 -0.5983969 8.2039776
5.3187561 6.3194094 0
8 -4.3411455 4.1540322
7 4.6648502 10.525701
-7 1.0623713 15.156908
0.80887794 -7 13.173468
-0.15374717 3.6299477 19.65316
8 -6.0836892 2.2996182
-3.6912467 -8 7.1101446
0.98551083 -5 11.837652
-6.6050386 7 12.201178
-0.54020143 5 7.6719317
8 1.0550942 7.920722
-5 -2.6274779 9.8232689
-2.8668101 -7.0000005 16.749165
2.4723246 5 1.259315
4.0572033 8 9.9638014
8 0.18335986 8.5326786
-5.6240239 -7 15.977003
4.2798886 -8 2.9142787
-7 0.89014244 14.296474
-2.0571752 -5 11.735292
5 -2.9583237 11.502388
0.30481398 -7 13.839993
-7.6580138 -8 9.8842707
0.23360342 -7 17.074053
-3.8998287 -5.0609798 0
-6.1817236 -3.64943 0
-8 -4.7029967 1.28386
8 7.6380053 4.0434623
5 -0.97441816 10.267777
4.7969046 -7.6416655 10
5 -0.99121702 8.8898506
1.5777822 -4.3840694 16
8 2.6240501 9.1231565
8 -3.7447939 1.7880378
-7 6.8793631 14.341631
7 -6.4081311 12.226868
7.9281354 -4.5586982 10
7.9030423 -5.8008804 0
-3.3271525 -5 6.3545189
5 -1.2868971 8.7478247
8 -3.9946828 4.6641798
5 0.8609072 3.092423
1.8766567 -5 0.23760605
7 -0.87762213 13.855877
-5.77985 8 7.6466751
3.3843193 3.1999154 19.441103
1.9379253 -4.6007934 16
-6.1850729 -3.4148102 18.703617
5 1.9899501 11.25992
-8 3.0649083 2.1889646
-6.9999995 4.2945137 16.64724
5 2.7130647 10.081006
3.9733515 -7 10.922031
-2.3048444 5 1.0225102
-6.8558226 8 6.8550949
0.9877668 5.5573988 19.180361
4.5798283 -6.5917921 0
4.8370843 8 1.9158435
0.44882798 -8 1.6600288
-5 -4.8819084 5.4293461
-8 1.6409638 9.3296995
7.4587808 -8 7.5593491
5 1.8217508 5.7471194
8 7.6060448 7.2785792
-2.0427449 -7.5278273 0
0.013343684 -5.972784 19.082153
6.4240971 1.5790807 18.859434
8 1.6413946 8.5887156
-5 2.9410081 6.0543041
8 -2.4619515 8.1663713
8 -3.0726929 7.2040176
-8 -1.0408821 0.98042494
-8 -6.1669836 4.1377144
5.391407 8 2.8567128
3.7503648 -6.4891157 18.536301
3.8630664 -7 17.015097
-1.7077972 -5.2265034 19.218575
1.8131032 -8 5.9062157
-4.3575191 0.78461432 19.502079
3.3113556 -8 6.6267653
5 3.1567185 8.4709406
1.8888588 6.4753819 0
6.5159817 7 14.345997
-2.2069969 -5 13.382534
-0.61289084 -3.412467 19.684162
8 7.690774 2.2620423
-2.6997943 5 2.6847453
-5 2.580601 0.37372303
-8 -3.01057 9.1568298
4.0598917 -8 7.2345486
-5.6385102 7 14.961365
-8 5.2708082 8.1715183
0.37161922 -8 6.3494587
-1.5083659 7 17.840416
7.8258042 4.9640975 10
-1.021903 -5 7.2656593
-0.88485074 -1.8742747 19.879017
5 4.334126 14.541945
5.8865604 -7 17.30328
-6.4382725 3.1993587 18.659889
-2.4893744 -8 5.7542157
2.7236371 -5 6.3406096
-4.4885044 -7 15.889954
-3.3141384 -5 1.0162439
8 -5.1186404 9.8603954
-2.3894041 -7 17.450697
-5 3.206027 8.9592934
7.0000005 -1.9244378 13.022701
-5.1158195 -7 17.862532
-5.5799479 3.9178572 0
-5.0124969 5.1571274 18.658777
8 2.1451726 8.5093985
5 2.7853937 5.0549197
-0.18742663 -7 16.283936
1.3891796 7 15.707763
8 4.4932699 7.4481211
-5 -2.2460082 8.9752035
7.2396584 -8 8.1777678
8 -7.8996649 5.2517505
7 4.3495555 17.388044
-5 0.23866177 5.4733486
2.1839187 -8 5.240685
5.2749453 1.286275 19.236534
5.1381006 8 8.697197
-5.9538574 7 14.788979
-5 3.718256 2.0709264
7 -2.635005 13.358612
-2.2476749 8 3.207696
-6.6088915 8 2.4618335
-7.3677969 1.0008109 0
7.7973523 -8 1.3353225
-2.9486516 1.7823789 19.688309
-6.3431525 7.8198323 0
2.9650145 5 4.3836603
-2.7138085 -8 1.1063589
-7 -1.8926597 11.503297
-7 5.1201043 10.021783
0.58513033 -5 0.59293842
-5 -1.0276377 11.501051
5 -0.80198824 3.4198062
-7 6.3821912 15.37818
-0.66116023 -7 11.053596
-3.6945043 7 11.635231
5 -4.6422591 10.297458
-3.6929283 8 7.5258241
-5.8242812 -8 1.3516841
-1.8125505 -5 11.818251
3.0853398 -5 10.364628
-7.8526111 -1.7158499 10
-7 3.6061168 16.108032
-1.1278853 -8 3.9662447
5 1.4546645 0.44165927
-5 4.1932068 10.405012
4.6596537 7 11.793674
-7 3.3874168 13.087606
-2.0872846 -8 9.5641537
2.7700877 2.1661708 16
-5 0.38403606 9.1237297
-1.2296212 -7.3408399 10
0.29278588 5 14.934554
-2.2995224 5.3316846 19.136465
7 3.9060435 11.149937
0.20917988 -7 11.696104
1.7179222 -8 8.651144
6.9578161 8 5.4107642
4.6724048 5 8.7260799
-7 6.4881158 14.379856
-6.1464748 -7 10.41818
2.2497749 -5 13.292796
-5 -2.5370865 0.60861397
4.6018658 -8 7.2457108
-7 1.9886017 10.109231
5.4010329 -6.0403762 0
2.4375145 4.0146217 19.431301
0.082443237 8 6.4303589
8 -5.5524988 9.0337992
4.5974388 7 17.816582
7.3690324 -8 0.062710412
-8 4.6751857 8.4417038
2.1736205 7 17.950922
0.16991711 -5 5.5803585
-0.61091208 -0.83865482 19.971373
0.14186567 -0.3488344 19.994766
4.2599525 8 7.9578171
-2.2581191 -5.5901623 0
7 -0.74977285 11.698393
3.9076529 7.7483616 10
2.0753539 -8 0.28326628
-3.4197607 2.1715646 16
-5.6934586 -5.9964752 18.206001
5 -2.7480588 5.0262971
3.0486374 -7 12.760729
3.8627508 -5 11.545904
5 2.1554685 8.4779005
-1.3501323 0.29772618 19.951454
-7.4183898 5.4107504 0
2.5987997 -5 7.7666674
-5 1.0257244 12.389632
7 3.6130531 17.584951
4.7117829 8 5.2701044
-3.5307829 8 0.064936876
-5 2.0148363 15.09334
5.7640333 4.7989883 18.52891
6.6054306 7.0674295 0
5 3.4879537 14.191736
-6.2164211 -7 11.593648
-0.96987426 1.4225378 19.918087
8 -2.8950226 7.4869967
-3.9186778 -3.2076273 16
5 -4.7802353 2.9250946
0.59013534 8 5.8058515
-0.33716187 3.6965673 19.638456
6.678575 5.1424494 18.132053
5.2731347 -0.68776309 19.266745
-7.4673176 -5.1920738 10
-2.7246387 2.9250448 16
-3.1163533 5.5131102 18.966255
2.6346829 -8 3.107868
2.6141262 -5 6.002635
7 -0.45679462 14.995661
0.91018289 -5 5.7475557
5 1.6414833 9.644146
8 -0.23941517 0.57994169
7.6025796 -8 2.9752402
5 3.8920331 8.000823
0.64415884 8 5.2490578
4.8624654 -5 10.167354
-2.3512712 5 7.7789135
8 4.8302765 8.5360012
5 -1.4835452 10.682123
5.7817898 8 6.845345
-2.3911986 5 2.905103
-6.7192392 -2.6124802 0
8 -6.8364773 5.6049218
-7 2.7331803 15.304731
1.3043439 8 8.400301
-2.9380763 8 0.89251399
-5.1695099 8 9.8929729
2.8904915 -5 15.616086
7 6.3780146 13.20662
7 -0.94245726 10.149804
-8 -2.1655219 2.4606857
4.1928749 5 1.5072553
-3.2448187 5 10.168093
4.2422504 -2.4266384 16
-6.522665 7 17.340351
0.28565168 -3.5525391 16
5 0.72634155 11.465928
5 2.5141242 7.2072315
-5 -2.9255598 2.2559509
5.8154359 -1.3801692 19.079487
-3.976193 7 18.238703
4.9500709 -5 10.664923
1.0885785 -8 9.7742052
2.0537713 5 15.524834
7 -1.139949 13.796505
-7 -0.56968331 11.789154
7.4065547 8 7.5091295
-5 3.9193878 6.7496977
-8 -7.0750961 6.4445367
2.1647868 6.1061196 0
-3.2868271 -7 12.296355
-7 -5.7755837 15.157064
-2.0407283 -7 11.516273
-2.8738954 -2.5581703 19.612913
7.6223769 8 0.23486078
6.9999995 3.9712341 14.952707
2.9730082 8 2.1794291
8 -0.71439648 0.89840245
1.9294878 -5 7.9806366
5 2.1763752 0.23798794
7.8284674 6.0753322 10
1.1014968 4.9999995 11.388716
-1.7905488 -5 0.0091705322
6.6650043 7 10.890648
-3.1802568 -8 3.0655336
-4.2917762 -7.5516038 10
0.39679307 -7 17.477774
-3.9948521 -6.4042721 18.513506
0.69904518 -8 4.4363632
-2.5877211 -5 4.3891439
4.3746781 -5 2.3014698
-0.85461527 7 12.043821
7 0.54788435 14.38277
-5.1235647 8 5.804081
7.686305 -1.703603 0
8 7.635952 2.1152284
5 -1.5193688 10.708284
4.0654907 5 7.8695192
-8 2.2259598 6.5918322
7 0.2365384 15.47726
-5 4.0739098 5.5223064
0.78269422 -5 8.2000542
3.8924751 -5.6286869 0
-4.6216669 5 2.8301725
8 1.2135754 3.3855195
4.9229393 2.5635233 19.204416
-7.9069648 -8 6.3545585
1.0266252 -7.6968513 10
8 0.24706459 3.9582989
4.3733883 5.2543221 0
0.14915419 5 2.8648891
-7.8202453 -8 3.5160873
-3.5265379 0.26165783 16
1.9513237 -8 0.98030514
2.5295105 -0.47204775 19.823196
-7 1.49529 11.344091
-8 -2.1406465 1.3795516
3.6577854 0.31947649 16
8 -3.9770815 1.6374902
3.4529443 -8 3.0439315
-8 7.4908562 3.8644471
5 -0.055809975 8.4931374
-0.036763191 -5 11.433988
-7 -0.23458552 11.728773
-1.7407439 -6.9212055 0
-4.8472819 7 16.134645
7.1803222 3.9783955 10
8 5.0471325 0.23318276
-4.9571743 -5 1.5312539
8 -5.9449229 8.353591
-3.8565974 5 4.7295904
5 3.1005521 1.5211517
3.9288969 5 9.814889
6.3313417 -6.4768057 0
-1.8410003 -2.9090037 19.688778
-0.02495575 -8 7.8816071
4.6517844 5 13.561371
4.1805239 -8 1.0017055
-3.5490699 -8 9.146759
0.67339921 8 9.0006733
2.7743483 -5 11.902815
-4.0338316 -6.8988409 0
-1.9195421 7.17979 10
8 7.4589996 1.8307108
1.0422547 5 8.4565926
-0.31294531 -7 18.266674
-5.3534417 4.3106952 18.770399
-3.5997233 -2.4147439 19.522001
-5.0000005 -3.0421808 15.309281
8 0.12629318 5.0239983
7.1615605 -8 9.0458546
-4.5683098 1.1086361 16
-5 -1.596683 6.4949627
-0.96702003 5 13.072995
-8 -4.0433545 6.8547688
-7 -1.9730581 18.505627
1.7974032 -7 17.951836
8 -6.9821362 2.003463
0.68905044 7.7992172 0
3.1744409 -8 5.1357789
-8 -4.0296335 8.682435
-0.879287 -8 8.4399433
-8 6.3276625 4.9481621
-5 -0.37764168 12.251795
0.1792202 -8 0.18741006
-7 4.5597725 10.498507
1.1349822 5 1.8353425
-1.2515444 0.99775976 16
-8 5.2051797 9.45051
7.0176511 -0.37895644 10
6.5255251 -7 11.338245
4.9849486 5 6.0033002
-0.26745653 5.759088 0
-2.1495862 -8 8.6414232
-5 4.1760845 13.569575
7 0.4904677 13.966415
2.864356 -7 10.524813
-3.7264032 -5.3463488 0
5 -3.9210711 3.8560686
3.552685 -5 7.5562115
3.6879001 8 1.0263628
-2.3105893 -7 16.840738
-3.6442232 -7 13.319307
-4.229073 5 1.888566
-7 4.4039459 16.575378
-3.4208412 -5.6284652 0
-1.6288487 5 13.246574
-5 1.5519242 0.34865189
-8 2.9289179 8.6297264
8 -7.2862444 4.0753684
-5 1.8071253 3.5567322
0.56710863 -1.8464195 19.894705
1.116511 7 12.025055
1.6925992 -1.0521216 16
8 7.031477 0.26398614
5.8769631 -7 13.223384
-8 6.3905802 8.9191866
-5 2.9610262 14.159986
6.0023222 0.98512948 0
-8 -7.9735646 2.6957932
-2.7144935 -8 8.491107
-8 4.1559935 5.7806268
4.7672606 -7 11.511835
5.7080708 2.0543113 19.049185
8 1.9846401 3.9127121
8 7.3147945 7.4539514
7 3.5615034 10.311999
-7 0.16450906 13.853519
8 6.4227657 0.86718637
5.4962773 1.6583691 19.154245
-6.4091101 -4.3987556 18.425581
6.3233156 -7 11.494866
-3.7291861 8 7.2145109
5.3388143 -7 15.42763
2.9854822 -5.1587043 0
-3.9465213 -4.8547997 18.983614
-2.2935543 -5 3.1339884
-7 -3.8200405 11.53047
-0.25248706 5 10.208158
1.4381539 -5.0004487 19.296906
6.8163519 -8 4.052959
3.689328 2.0768876 16
7 3.1008048 10.057875
6.1314783 8 2.8234391
-4.2453728 5 14.200089
-3.1670642 -3.0677714 19.507101
-6.773984 -2.8710651 18.595356
5 1.7723899 3.5452414
-4.8763828 8 3.244206
-2.4604964 -7 16.647827
-5 0.85448354 2.7236662
5 -1.1927415 7.133821
-2.3070211 2.8197708 16
-1.4166884 -5 15.614189
-3.731672 5 8.1201305
5 -3.2266474 3.6497283
5 -3.2335987 0.69308525
-7 6.7610264 16.850731
6.8765006 8 7.2846117
8 2.1200762 8.8153305
2.6839607 5 3.276036
2.7685184 -7.0000005 18.412392
4.6828575 0.3110458 16
-7 5.3110037 16.405579
3.6740534 7 12.689722
-7.3545351 -0.29829955 10
7 -6.9677272 16.680845
-4.9223142 7 13.822435
2.9547853 0.99235463 16
-5.0361571 -3.165545 0
7.984827 -8 8.9076109
-5 0.49832797 6.9517927
-4.502079 5 8.8371964
-0.25087482 6.6169319 0
7.6356087 7.5553794 10
6.1676512 4.7878361 0
7.0000005 -2.82393 10.632227
-4.5534806 -4.4079208 18.955212
-8 -5.1201792 4.9257336
8 3.2883921 2.4089816
2.6573572 -8 7.7145929
-3.8899302 -8 4.7254868
4.8825502 -8 0.61037523
-8 3.1977434 2.9914618
7 1.3270569 12.460034
7 5.1126027 10.952658
0.3991884 5 2.1942282
-0.082350731 -8 5.0313396
-0.79190123 5 9.0873814
-4.7871399 8 8.0567703
7 -1.8128426 11.09247
-0.43764019 -5 0.87716007
-2.2711806 -8 9.9673862
-3.1184289 -6.0329227 18.810081
-0.16592687 7 12.255763
-8 4.2930212 1.0396845
-0.18962708 5.7788363 19.143015
2.9120979 -5 15.731294
5 -2.1212344 15.034493
-2.0382786 -4.6471376 16
5 2.18437 12.739139
3.1399903 -8 2.590368
1.3996185 -5 5.1964216
8 1.5543318 3.2047529
8 5.9154835 0.75560915
3.2284527 5 11.370299
3.8046188 -8 8.5431404
3.8035214 5 8.7216005
0.87222075 -5 9.8112564
-1.6242795 4.4011946 16
-2.9537058 5 15.199186
-0.70475739 -7 17.845421
-8 2.1989341 4.5632253
7 5.7444282 10.074141
2.1701956 -8 1.7926937
5.4176407 8 6.4792962
2.2343314 7 14.262886
5.9978361 -7 12.187634
-3.8930137 -5 13.162086
5 3.3405156 0.57749367
5.6661649 -4.653934 18.603897
1.8722944 -5 15.29821
3.0799704 5 2.7205217
8 -1.1389644 5.9363365
5.5127859 -1.725907 0
3.8369546 -4.2549081 19.157915
2.6326156 7 13.34869
-5 4.5194283 4.7557178
-4.5183115 8 2.587683
-8 6.1211433 4.998477
0.48251438 -1.7876289 16
-4.6647129 5 1.0990667
-4.0009794 -5 10.858136
1.3473911 8 7.2578454
5 -0.75753784 10.726111
7 -3.244278 13.236928
-2.3441443 -7 17.738937
2.3717334 -5 5.9461184
5.9165778 -3.6080606 18.750769
3.0166712 -0.28170753 16
-0.63071311 5 3.6437981
-2.9574938 8 8.0601006
5 3.0356643 6.6434841
8 -0.86440396 8.0868053
1.0843716 -5 10.669771
-1.17079 5 13.476846
-0.54404473 -2.0892084 16
-4.4538555 -7 12.120519
4.5818372 -6.9824753 18.168571
1.146892 -2.5706034 19.796358
8 0.010759592 7.0360122
6.5604706 -8 8.3612385
5 -2.9262118 8.9912806
8 7.7505598 6.6516609
-8 5.7329659 6.8701038
2.4890094 7.2613659 10
-2.3229189 -5 12.919116
-8 -6.0418801 1.9747512
0.60750127 5 8.6488218
-7.0121593 7.7371073 10
0.097200394 7.5230389 10
5 -0.45973802 2.1902399
6.8390527 -6.5811491 17.598888
7.5454221 -2.389359 10
1.8006184 5.0000005 11.058187
0.48893014 -5 3.1480455
7.0630302 8 4.0156026
4.4175997 -5.0812321 18.818457
7 -2.6419082 14.646164
-8 -1.7877202 0.05117894
3.9684265 6.5883503 0
2.13235 8 4.1952934
-3.9179347 1.3240435 16
8 1.9327078 1.4397496
-5 -1.671093 8.4939079
1.6645291 -5 0.95826721
3.3073473 8 9.15804
8 -5.4557209 0.20790659
-7 0.22272134 14.340939
7 2.480598 12.016438
7 -2.9450815 10.567538
-3.9907765 5 4.1613779
-6.74962 -7 11.352823
0.10284853 -6.6197438 0
-6.7733316 -7 10.428105
3.710088 8 1.8162978
7 -1.1460085 10.454847
-1.205004 -7.2011232 0
5.5397863 7 11.485439
5 3.0771275 7.9874244
-7 -4.2176919 17.520931
5 1.3738786 13.08893
8 -4.3403959 8.3847389
-1.5795012 8 3.6128724
4.4594812 7 17.764246
6.5337043 6.9203129 17.586014
1.4716603 8 1.970886
-5 4.5370789 11.932452
-8 -4.2677236 5.5244484
5.5811553 -8 0.73970097
1.4488726 -5 4.3897743
6.663414 8 4.7328181
5 -0.51403934 12.802775
8 6.6771231 6.5941424
-0.33866668 -7.4028845 0
3.840543 8 6.3233972
2.9745841 5 5.9723387
8 7.5257082 2.5356176
-8 1.021148 9.9526701
-7 -5.4949346 12.180593
3.862607 -8 8.6588039
-5 -0.94737071 0.60461903
5 -4.5012212 12.187537
-6.2844381 -8 0.95975578
4.1808882 5 6.428452
-7 5.3461552 15.370791
-5.1715207 -8 4.8576741
-1.1899319 -7 12.73575
5 1.6628132 12.366528
8 -3.8566568 1.6339593
3.5589085 -4.9186277 19.046906
3.5078256 -8 6.3504748
-3.9002163 -7 10.24041
7 5.2898464 11.28296
-7 -0.90905809 15.316241
-5 1.0088193 0.16154385
1.1051538 3.2695384 19.68722
7 -4.9794655 14.443802
-1.6693945 -7.9941502 10
-3.2797465 -4.9999995 3.5126333
8 -4.6470838 4.2049875
5 -2.5124438 13.41933
-8 -2.6909132 4.5324154
-8 0.42282248 4.0328498
0.58990389 -2.1097848 19.865864
-7.7984657 -8 9.3327322
5 -3.0456471 14.411125
7 -3.2646492 17.068943
1.7360719 4.3767662 16
-3.8197911 1.0437601 16
-8 0.36904991 3.0858493
2.5304611 6.6061792 0
-4.4017978 7 14.830957
1.3725462 -8 6.3026981
7 -5.2563696 14.904542
-5 1.8660045 6.9571705
7 -0.43094468 18.680519
1.6831934 -5 1.8741255
-5.0521636 7 11.180858
-5.9685254 -7 16.574837
-5.4494095 -3.7332978 0
-5 -4.8991551 14.917992
5 2.1288314 9.9996233
-8 2.702497 7.1324434
-4.6244125 -8 2.9454961
2.107023 7 16.96417
-5 -0.075202942 15.677774
-5 4.5937777 11.986903
-2.1072929 2.2598007 16
-4.624197 3.2936437 19.171082
-8 -4.7007351 2.2512035
-4.337461 5 13.341802
-8 0.72024655 2.0550585
7 3.0988097 12.690344
-5.3818069 -7 16.21917
5 -4.3903098 0.71217728
2.7627985 -7 16.753225
-6.6300306 -7 13.362257
1.7885568 8 6.3439941
3.3363867 -5 15.619701
6.092639 1.2150288 18.999971
-0.85373479 5 6.1629181
