# .PCD v0.7 - Point Cloud Data file format
VERSION 0.7
FIELDS x y z
SIZE 4 4 4
TYPE F F F
COUNT 1 1 1
WIDTH 1921
HEIGHT 1
VIEWPOINT 0 0 0 1 0 0 0
POINTS 1921
DATA ascii
-8 -4.0433545 6.8547688
8 7.759119 3.4657133
8 -5.6101217 2.3397403
-5.8123226 8 2.003463
6.9291601 8 4.0255575
-8 -3.1744409 8.1517534
-8 -4.0296335 8.682435
1.6168029 -8 4.4504457
-8 6.3276625 4.9481621
1.4811454 3.1578097 15.377642
0.1792202 -8 0.18741006
7.5626993 -6.6495767 0
1.1349822 5 0.91767126
-2.6576805 0.37559685 15.997759
-8 5.2051797 9.45051
-0.73568112 -8 9.8234901
8 -7.2463355 8.8560581
4.9849486 5 3.0016501
-2.6290331 4.5596538 10
0.024136186 -8 3.6565084
1.9881945 -2.8742809 12.342931
2.9870968 1.8005266 14.540833
8 -2.7928965 2.6536231
-7.4804764 4.4844894 10
5 -3.9210711 1.9280343
-3.0340209 -1.7127378 14.722632
5.1746411 -1.3349597 10
8 4.5762615 3.4760993
8 7.2048349 5.703011
-4.229073 4.5905728 8
2.6477351 7.5545678 0
-7.0573015 2.7918928 10
-1.6288487 5 6.6232872
-3.4342141 0.6679371 13.448075
-8 2.9289179 8.6297264
-2.1931658 8 4.0753684
-3.4476984 0.53102899 13.192875
2.6532202 -0.41518265 11.566088
-5.695497 -1.0571508 0
2.0485537 -1.6828852 10
-7.031477 8 0.869313
8 -6.6710753 6.935091
-8 6.3905802 8.9191866
0.078524426 3.4922662 12.038973
-5.7422633 -1.359473 10
-8 -7.9735646 2.6957932
-2.7144935 -8 8.491107
-8 4.1559935 5.7806268
8 -6.8329215 8.2692204
-0.56594241 -2.6362336 18.310005
1.7396606 8 3.7595999
-7.3147945 8 7.882205
3.4480648 0.52730626 10.357183
7.19699 -0.13844872 0
6.6125016 8 0.98577142
0.56371397 -2.6364846 17.79813
2.629344 0.60926974 18.801779
8 -6.4184732 9.2217808
2.8188503 -4.5963874 10
8 -0.87442005 7.8220129
-7.7619433 -5.4539104 10
-1.167518 -2.4340045 17.022839
-5 3.0412571 7.4018378
-4.7780161 7.5813971 0
0.34525952 2.954196 20
0.85103261 2.5447474 14.850365
6.8163519 -8 4.052959
-1.0006509 1.8093156 10
3.4995544 0.0045241024 12.818268
-2.9703636 -3.2430081 10
-4.2453728 -3.1204281 8
2.6443164 0.49420673 19.935373
1.047123 -2.9101975 8
5 1.7723899 1.7726207
0.52825236 -4.9598927 10
8 4.2235489 3.6353657
3.4835691 -0.16682735 11.702291
5 -1.1927415 3.5669105
-2.2677021 1.4339453 12.692979
-5 1.1755571 2.8666492
-3.731672 1.1932461 8
5 2.7189198 3.2435465
5 -3.2335987 0.34654263
5.2312212 6.0693684 0
6.2338758 6.6830201 10
-4.0155478 8 8.8153305
-2.9524777 5 3.4908497
8 -4.6253567 2.2541573
-1.696981 -2.0973866 15.311045
3.2426083 5.324852 0
-5.9237747 0.1609242 0
-2.3274436 -8 4.9598317
1.9955047 2.8682818 18.55687
-6.3354998 4.4789085 0
-0.63602966 -0.50015843 10
-3.0319908 1.9042878 10
7.984827 -8 8.9076109
-1.6023018 3.09305 14.501673
1.7748082 2.4847431 20
0.62363696 8 1.4109874
-2.2614262 -8 3.6439152
3.030807 -3.4066534 10
3.4183328 0.73033822 17.378986
-0.0392766 -3.6735969 8
-8 -5.1201792 4.9257336
4.1456294 8 2.9447551
6.3140087 -8 6.6608486
4.5492911 -8 2.5687933
4.8825502 -8 0.61037523
-8 3.1977434 2.9914618
-2.589957 -2.3346443 12.816298
3.411027 0.7544238 11.893452
-3.6286073 5 4.7777634
7.867506 -8 4.9485307
0.93197185 -3.009865 20
7.1255465 -3.2325554 10
-2.8557055 -2.0108292 16.920229
-5 4.4517746 4.7886925
-2.2711806 -8 9.9673862
-1.1378922 -2.444371 10.000046
2.7910118 -6.9229221 0
-8 4.2930212 1.0396845
2.6258976 -0.61911881 13.228754
3.0800397 -5 6.3296785
-4.3965588 -5 2.3030124
-1.6653581 -2.1222954 17.39114
-2.9619617 -5 5.7474961
3.1399903 -8 2.590368
-5 1.7522364 5.4785161
2.8723955 8 4.0285425
6.7910247 8 1.3028228
2.1064372 5 7.1023874
3.8046188 -8 8.5431404
3.8035214 5 4.3608003
4.7401857 -5 4.6977768
-2.2387938 1.4799521 13.375721
-2.9537058 -2.4531975 8
8 7.9907141 1.0125999
-8 2.1989341 4.5632253
-1.3338193 -3.2352691 10.939275
2.1701956 -8 1.7926937
7.1419716 3.8922572 10
-6.4640718 -2.3082399 0
8 -5.3958993 9.0448103
-2.1193171 -5 0.88558912
5 4.6390667 6.9611592
2.1825581 1.5694509 11.081139
-5 -2.3109136 5.4978356
3.0799704 5 1.3602608
-5.3628969 8 5.9363365
-4.742588 -0.52581239 10
0.56069785 2.6368244 10.714293
0.37707853 -6.5109153 0
1.5192484 -3.1374433 10.480572
-4.1890097 7.8147678 10
-8 6.1211433 4.998477
-2.2562594 -1.4521561 13.212371
-4.6647129 4.6483707 8
-5 0.787314 0.79921675
5.3965278 -5.9294882 10
-1.7038198 -5 3.3939698
-1.7202625 -3.0299988 19.170193
8 6.3231344 4.5840635
-5 1.2836761 5.0756721
0.14267907 2.6839237 19.760845
-0.011532545 -0.52047205 10
-0.63071311 5 1.8218991
0.96933317 5.7911596 10
0.84782219 -5 6.4285316
-7.4260416 0.29044533 0
4.4157648 -5 4.8674974
-1.17079 0.40618142 8
1.4414877 -1.8421252 10
8 3.148031 7.5723877
2.2452488 1.4696796 16.722237
-0.54639184 2.6384366 19.069191
-4.7531404 8 7.0360122
-8 -6.5604706 9.2609434
5 -2.9262118 4.4956403
-2.642658 8 0.15590012
-8 5.7329659 6.8701038
-2.5458779 -8 7.3863392
-0.39736652 -5 2.141665
-8 -6.0418801 1.9747512
0.60750127 5 4.3244109
3.068774 -8 9.5469074
-7.2516184 -8 5.2373505
0.45973802 5 1.09512
-1.2476183 -2.5992913 8
-0.7267586 -8 6.7774606
1.8006184 5.0000005 5.5290933
-5 3.0324717 5.1828785
5.5705442 2.7439969 10
0.85308754 2.5440285 19.115406
-1.5952035 -3.0968442 15.319023
-8 -1.7877202 0.05117894
-4.9920511 5.6897068 10
7.0381584 0.42240953 10
-1.729683 2.0646842 16.324043
5.6964006 8 3.7920575
-3.4908376 0.093026914 15.308693
-5 4.401083 3.1475105
-3.86482 -0.81634116 10
7.6673493 8 8.4098253
8 4.230216 2.6742883
3.2748847 1.2032237 12.308458
3.1293924 1.5343102 10.649729
-3.9907765 3.4083624 8
8 -5.2585859 1.436421
-5.1320801 4.1325393 10
8 -7.2006397 0.22173367
5.5238714 -0.6919179 10
-2.2392917 -2.6682112 10.520719
-7.0625391 2.0727246 10
-5.5101681 2.5965414 0
0.0078594685 -5 6.4617019
8 6.4702225 4.4233265
5 1.3738786 6.5444651
1.7559779 8 8.3847389
7.8200274 -1.8994527 10
5.1706805 -3.7236416 0
-3.8113813 3.1439285 8
6.2229943 -1.6874611 10
2.4950233 -2.4503214 13.005139
-8 -4.2677236 5.5244484
-8 -5.5811553 2.2514789
-5 -1.4488726 2.1948872
5.5060768 4.4368887 10
-3.0017347 -5 3.5887685
-2.5506282 8 0.82679808
-5.5794396 4.4314232 10
7.5153761 2.9789894 10
2.9745841 5 2.9861693
3.9430118 8 0.29643238
-8 1.021148 9.9526701
8 -3.9922466 1.5459774
3.862607 -8 8.6588039
-1.6074843 3.0902803 10.377887
5 -4.5012212 6.0937686
-6.2844381 -8 0.95975578
-0.98221779 5 3.8695157
-0.10258627 7.4008274 0
-5.1715207 -8 4.8576741
8 3.8654757 4.2839804
5 1.6628132 6.1832638
5.3856654 8 7.4104109
0.91109562 2.5237308 12.825655
-8 -3.5078256 9.1580839
8 4.2372093 9.7247734
-0.71480185 -3.4230456 11.468759
8 3.8299894 1.3076022
-2.2685452 2.6442032 10.100965
1.1404159 2.4434879 17.077084
2.8154681 2.0598578 16.925282
-7.9064054 -8 6.0470276
4.524857 -4.9999995 1.3762026
-4.6249361 8 4.2049875
-3.3870811 -5 1.990045
-8 6.0572214 3.3181791
-8 0.42282248 4.0328498
2.6651402 -0.30938962 14.818443
-6.7308378 -8 0.12595885
-4.0069532 -5 1.5634824
2.5510144 2.3820961 13.774357
-2.5795732 0.75150561 16.736073
-1.4344397 2.2673912 11.180209
-8 0.36904991 3.0858493
2.9674027 -2.5738318 10
-6.6892691 3.6689835 0
7.288229 -8 5.857841
0.40405279 -3.4602041 14.118641
2.3086534 2.6112871 18.785763
-0.0036696524 -3.4996386 15.483951
-5 3.8286715 3.590508
5.6223955 -7.785387 0
8 5.4502344 1.5224881
-4.2302599 -7.2277498 10
-3.4192793 0.72721744 19.899155
-1.2497644 -5 5.7030649
-8 7.2905879 6.6890607
6.6627941 -8 2.1097422
5.6018572 -0.58582866 0
1.6464946 -3.0694289 15.276594
2.4533286 2.4925554 12.914408
-1.4598551 2.2514217 12.892708
3.9379721 2.2117114 8
-8 -4.7007351 2.2512035
-4.337461 -2.6760869 8
-8 0.72024655 2.0550585
-2.7760823 -2.1078501 14.326545
8 4.3114109 6.9760933
5 4.5548892 0.84384054
8 2.2289023 8.6018763
8 -1.0069628 3.2384596
1.9694734 7.8982344 10
3.5740736 -5 6.6691093
-1.1560791 -2.4380071 17.341637
-1.1481764 5 7.7644467
-4.733078 -5 0.52016729
-8 -2.1762528 7.0233397
3.7941043 3.9095013 8
5 -3.9520323 6.064723
-0.2714653 8 8.5963068
-2.9183645 -2.7884576 10
2.4495006 1.1232336 19.30871
-2.6879716 0.10675482 17.418196
1.1965424 5 6.07236
-1.2615538 -5 3.6200099
2.2636564 8 6.6763139
-7.4538307 3.6515756 0
-1.5765109 -2.178122 10.953817
-8 -2.3036137 2.6029098
-5.0667634 -8 4.1206584
-0.92790949 3.22018 8
5 -3.615871 2.9408488
-4.760026 0.4659338 8
0.45749158 2.648453 11.130947
-6.8304839 -8 8.9089336
-6.1320934 5.7955279 10
5.4488192 8 2.8381765
1.4067899 -0.29902017 8
1.6428633 7.8371067 0
3.1221528 -5 2.0796256
-3.7028871 4.0536451 10
2.1712403 2.7240591 16.356501
-3.3993583 4.8605008 8
3.6461122 5 6.8190141
2.8223174 8 9.7759247
2.8954332 -5.4759846 10
0.34428871 8 1.7115593
8 4.0444255 9.906702
5 -4.4566231 0.63572103
3.6188612 -4.6015677 8
7.1303005 -8 0.96952343
0.77689779 -5 1.7667513
-0.46552199 -3.4541502 16.098309
-3.4678397 -0.32653022 17.140745
5 0.0792799 2.1622164
4.8882709 -5 0.59450674
5 -2.2506735 0.94688547
-5.1463213 8 4.0829935
-2.8726091 8 5.2280245
5 -0.53121829 4.612277
4.570816 -5 2.5932808
-8 -3.4818788 4.210969
-0.091426186 3.4909952 18.827337
3.9277034 4.890017 10
0.6049881 -5 4.5306201
-7.6276073 -5.6825256 0
2.9321723 -5.5538716 0
5.2205276 -8 0.74472094
-6.3861332 4.7257466 0
-5 -0.89952445 6.3404632
-3.9109142 -5 0.50287294
5 -3.7522135 6.7892189
7.2428136 -5.7873287 0
2.2729027 2.6406269 11.382879
0.95388943 -2.2018809 10
-8 -1.0642298 3.6001296
0.047982216 -0.39471602 8
-0.88417333 -2.5331511 19.116449
1.2420714 3.2631004 15.220578
5 3.290719 5.0505438
-6.3375158 5.891952 10
6.1117415 -3.732101 10
-1.2897882 8 4.8555794
-0.77553344 4.3025789 10
8 7.2717848 3.1561785
-2.5875142 0.72881252 18.190855
-6.2149887 8 5.0597744
-3.2910414 6.0232377 0
1.7886999 -2.9934182 14.639345
-7.7132883 -8 2.1924539
0.50339031 0.33564377 8
8 3.4099112 6.5596156
-8 -4.2265482 9.1781807
-4.924933 -8 2.3358417
-8 -2.8007336 0.65339291
-3.4974995 8 2.8381627
8 3.8510752 8.0626965
-2.3385382 -1.3212104 17.288956
5 2.3357368 1.7686858
4.6375189 8 7.4260926
-6.6671166 7.4763956 10
-0.65809894 -6.8867717 10
-2.0753369 -8 6.9903893
6.148612 1.9194878 0
1.1796764 3.2820277 11.836481
-5 -4.2966146 7.0452762
-5 -1.5660573 2.0607095
8 3.6706667 5.6905522
-1.9203434 1.8740239 11.709478
-2.7580256 -5 6.4966545
-2.5895481 -2.3351426 10.972818
-5 -2.5831604 6.3568258
3.1867828 8 5.2907515
5 -0.70460188 6.410428
0.5242362 8 5.1049991
-7.3914986 8 9.6994553
-0.22610097 2.6745245 15.924216
-2.1062977 -5.0483952 0
7.298501 5.355443 10
3.8905737 -4.6528826 8
-3.3169265 1.0646297 15.488218
6.8385792 8 9.8796968
8 -7.5086899 4.827426
-6.7634306 -8 2.5601885
1.0752313 5.1113997 0
-7.6518459 -4.0566225 0
-5.1097946 8 5.719902
-2.0600853 -3.7474267 8
1.2711694 -2.3699808 16.640026
3.9854987 -2.6402028 10
-4.7072086 -7.0331106 10
-8 6.4825797 3.121304
2.6262259 4.4503503 8
0.46895286 -2.647162 18.804981
2.8011107 -2.077353 15.103245
-2.7474461 -2.1427431 12.100595
-6.4055753 -7.6053476 0
4.2190018 -4.6777859 8
8 6.0835762 2.1715794
6.3897781 -8 1.4179431
8 -5.9890451 5.7458487
-4.1549463 4.5705094 10
-8 -7.578722 4.2375345
3.7979131 -8 0.38479352
0.55770713 -4.6569266 10
0.03155756 -5 6.9506507
2.4790702 -1.0387281 14.221159
-1.7740722 5 5.9040155
5.0000005 -4.7319608 0.42058793
-8 4.9301519 1.2602988
7.3609447 -3.5854707 0
-5 4.4832315 0.6005522
-8 -4.821281 9.7275724
-5.2268195 -8 2.4581482
-8 7.9538169 5.5152049
7.2005329 -8 1.568081
-3.9932578 -3.9200304 8
-1.2725217 -3.2538636 16.019119
2.4613252 -8 4.2389631
8 4.6594753 4.3563485
-2.7393434 4.5372095 8
3.4061086 0.77063656 19.400167
0.75395602 -3.4111683 10.943101
5 -4.2590623 7.2141314
2.0020461 -8 6.0315657
-8 -6.1611371 2.6975493
1.6683933 8 0.38235128
-1.9804659 7.3127317 10
-5 2.8631439 6.8119345
5.9720869 -8 1.6318361
-5 4.7276783 4.1971006
0.26550162 5 5.7056208
2.6790581 0.18586741 12.840002
2.1296663 1.6536278 19.095079
2.378474 -1.1271518 10
-7.3463197 7.10955 0
-1.0680988 5 0.056043692
-1.4107063 6.3339186 10
-0.45026779 7.8508139 0
2.2030015 -5.7393227 10
-5 -2.9767196 6.5876083
6.4677176 -4.2461705 10
7.6480837 -3.85992 0
8 0.27351379 6.8140311
-0.23204458 -3.4771457 11.672111
3.2870171 1.1632285 18.266533
3.4384768 -0.62465423 10.637903
-0.60409516 3.4405022 16.959503
-2.2544513 -8 0.84727609
5.07307 -0.85261834 10
-2.7825499 8 5.2863636
8 4.878459 1.4164217
-7.7692299 -8 3.2139757
-2.2265003 -0.23091954 8
8 -0.6260035 1.5994266
-8 -2.0980358 8.8030195
3.12852 -5 2.9337015
3.744565 -5 7.3853035
2.7113829 8 9.7174053
0.61325693 -7.2269621 10
8 -6.1587973 2.9560404
1.7435551 5 0.69963765
-1.6527307 -2.1302299 15.069252
2.515626 -0.93425715 11.944208
1.4534553 -3.1726105 13.95673
2.5149198 -0.9362759 15.541447
-2.8508158 8 9.4621372
-3.3240869 -1.0410258 15.744508
-8 -7.4459867 7.5756807
-1.6363487 2.1405234 15.942867
-3.3175037 1.0627277 19.901251
5 -4.2836723 2.4797339
2.5550857 2.3771353 16.361277
8 -3.6383753 1.816505
-0.39145035 -0.57528734 10
-2.8241816 -5 2.1229463
-5.6865897 -3.6751604 10
3.0601149 4.0279155 10
4.0359879 -8 5.7421675
3.1447945 -8 7.9693274
8 -4.0930572 7.142355
8 -5.4883661 8.9810448
-0.91715759 -5 1.5926003
4.8862305 6.8001118 10
-1.7458165 -3.3170216 8
4.2476554 -0.071412623 10.000001
-7.8967462 2.8370581 10
5 -1.2013408 1.3065554
8 -4.1356831 5.9739962
4.923337 5 6.0335884
2.1799481 -1.5736046 19.119946
3.0787058 -6.4836931 0
-8 7.994473 5.7890353
-2.3820696 -5 2.7259111
-1.7318842 -3.0237868 18.619444
-8 -3.833128 0.48716295
4.4279037 -8 9.3975458
6.0483394 -1.5866063 10
-0.5714075 -2.6356177 16.292635
-5.9255157 -4.2139425 10
5.8753161 -4.5659866 10
0.36228532 -3.464318 14.309837
0.84437525 2.5470772 12.805485
2.1973283 -1.5459443 12.536405
-8 1.3547772 3.7763174
-4.0777292 2.6033735 10
-6.0598741 8 1.0402495
8 -6.7674656 0.49813285
-1.65942 2.1260266 11.689229
2.5972557 2.2248821 20
-0.10166001 8 3.1196136
-2.8595114 4.8640575 8
-8 -1.7296026 3.8596642
-2.7006395 -2.1997774 10.387929
0.67132068 3.4338808 19.12332
-8 -2.2879779 4.7132368
4.5810518 2.8376684 10
-6.7922044 -8 1.7399371
0.27902359 5 4.1814265
3.4791677 -0.21151151 10.877026
-2.6867058 7.8503752 0
-1.9868289 -2.9262094 10
6.804287 -7.0230365 10
-0.8862443 3.3710394 12.350471
-8 -7.5532265 4.3375006
-2.0973666 -8 5.1706557
1.9683597 -1.8260076 11.15967
8 4.4122658 6.6427031
-8 0.62416124 6.3723683
8 -6.0261087 9.4144726
7.4349632 -1.9722834 10
-2.5008097 8 1.9739753
8 4.819746 8.6454058
-5 2.0632095 4.8387256
5 -0.20895427 2.2638268
-4.0985403 -2.7693017 8
0.70689845 -8 8.248127
-1.1836829 2.4249523 16.126966
-1.9155285 5 3.7853312
-3.190866 -1.4193008 16.691261
-7.5391073 8 8.5614719
-3.8338411 -8 5.1668935
-2.6919534 0.071416527 15.520767
-4.1344528 5 5.4238873
-6.9996548 1.928607 10
-1.5331962 -2.2053385 12.333119
0.86632848 5 0.42868981
-1.652226 -8 4.1950192
-8 -3.5713832 9.9508505
7.3430109 7.0891676 0
-4.6906247 5 0.20125145
-3.309068 -1.0905366 19.08404
-2.6361787 -8 3.4140434
8 -0.57020259 4.9233198
-0.99459314 -7.6095309 0
-4.3482766 2.3175011 8
-8 -7.6563549 9.511611
2.4717882 -1.0595382 11.572146
0.6023131 1.0011864 10
-5.2300215 1.1859164 10
0.24127102 8 4.1398611
3.0152652 -2.0702062 10
8 -7.4501343 6.4251432
8 -7.5705609 2.0216546
-8 4.6109276 0.69187176
-4.6485472 -5 3.0397546
8 -3.8320787 2.6658716
-1.1256797 -3.2984076 10.356327
5 -0.63185585 7.7000766
-0.26936021 2.6696506 10.21014
5 -2.888397 4.0073462
2.9465024 -1.8764735 17.363913
1.5245755 3.1345956 14.430206
-5 4.2233572 1.5852034
3.0462613 -5 0.54279804
-1.0448852 2.4769156 16.687956
7.2132106 8 6.1699986
2.8203251 2.0539398 11.5713
1.8755584 -4.8956385 8
6.064496 8 3.4900606
1.7368572 -7.3608541 10
8 -0.98710692 5.2647238
-0.72975802 2.9953966 20
4.38976 -1.6711578 10
6.3179507 1.7359536 0
3.4481511 -0.52643257 11.278111
5 3.0042706 2.1655569
3.0494061 -4.7840142 8
-1.0135764 2.4878707 14.007773
1.1044247 2.4560816 12.157018
7.6822052 -8 2.1782172
-4.343688 5 6.1774683
4.4711351 8 3.4194493
2.1371818 -8 4.8230767
1.2812223 -5 5.7308569
-5.9877653 -7.9920535 10
-3.6910686 8 3.2137563
-1.2184356 3.2702703 13.439653
1.6599362 -3.0622439 13.793156
-8 -0.61340046 0.31695968
0.40323445 -2.6545665 15.959205
-0.26002949 0.954 10
0.45276794 -2.6489854 16.470402
-4.080687 -7.4953885 10
-5 1.2410235 3.0073969
2.4736023 1.0543537 11.860704
0.4185417 -2.6528418 17.017477
-2.1812377 -1.5715524 12.108681
-5 -4.4777074 4.3797703
2.4879048 -1.0134797 17.821428
1.7690632 0.82103014 10
7.0184612 -8 3.22927
-4.3558106 5 1.8915837
-1.8271606 1.9672067 17.891199
-2.7785411 5 7.8971181
0.58833337 5 7.5338106
1.6655167 3.0592611 11.071202
3.8254042 3.7628369 8
3.0095644 -1.7584927 18.532557
-1.5029359 -5 5.1732035
-4.4812346 -4.8198361 10
-8 0.85887718 7.2974911
2.3756311 5.8257656 10
-0.33581468 2.6621628 14.95252
2.1254847 8 6.6529531
-7.2665272 -8 0.24227634
8 1.1289036 8.3194466
0.76941013 -2.5733085 16.369282
1.2881182 -2.3593311 12.207498
-0.2561447 -8 8.8633118
1.9321516 2.9167416 11.422643
7.5835099 6.2384281 10
-1.7346358 2.0597317 16.208599
5 -4.6758003 3.3269854
2.337966 0.81810403 8
-2.4976783 -0.98554951 18.67395
-0.071849503 2.6919045 17.073441
4.5805802 -5 5.6626043
-7.9219432 6.7188292 10
2.0797024 8 6.2282968
5 4.491818 6.8504939
-2.4891806 2.4574409 10.666143
-8 -4.7580757 9.4664764
1.5990351 5 3.8352017
2.4896712 -4.6514606 8
-8 -0.90250719 7.339736
-1.9536033 -7.2878537 10
-1.4100695 2.2827041 10.653933
-1.7564135 -8 0.93087685
7.8593464 8 1.0451281
-3.4084685 3.6490979 10
3.2584257 6.6308241 10
4.5531335 5.6747394 10
-4.8630533 -7.4836092 0
-3.1398082 5 7.7145419
5 4.2040353 0.97338206
-0.22190094 8 9.165143
-0.85422087 -8 4.7246895
-8 3.8779593 3.1328738
2.9001026 0.12998283 8
4.5043526 -4.1860456 8
3.4791217 -0.21198107 16.490122
4.7831454 8 4.4487338
3.4093897 -0.074721098 8
4.0238914 -8 4.7343349
1.5071168 2.2217252 18.070992
5.1103449 -5.4061527 10
-4.1621337 -8 1.3803706
3.9383717 -8 9.0142488
-1.5958881 -5 1.3740726
-8 0.44637918 7.544641
-2.0774632 -1.7169042 16.361216
6.5168219 -8 6.1460953
8 1.8579321 5.1645503
2.106833 -0.44760787 8
0.84540212 6.0706072 10
0.28336787 -3.4720907 11.538246
4.369051 -0.13857645 10.000001
-8 -7.2475371 0.50681573
-1.4218538 5.6526666 10
-8 -3.6314368 1.6297307
1.6634938 -5 0.95099926
8 5.1644249 8.8668528
-5 0.81659746 4.5498447
8 -2.3386872 8.9047337
0.26984572 3.6721563 8
8 -6.2076931 9.8989697
-3.8300176 5 3.7319698
2.5357294 -0.87680501 11.281799
-1.323926 1.6910081 8
8 3.3764315 1.8892925
-5 -0.27869105 4.3819461
-8 4.8362522 8.7358379
1.8291535 1.965214 14.899358
2.3594544 2.855402 10
0.55025721 2.638001 11.824959
-7.2793541 -8 5.744915
-8 -7.1208334 3.9468858
-3.1506886 5 2.4900477
-1.328104 -3.2370026 11.215993
-8 1.5611024 2.6753469
4.6249309 8 6.6099253
1.6067591 8 7.5441246
-6.9349198 5.2742839 10
8 -1.7018864 8.7828131
0.036153734 1.3029835 10
-1.13964 -2.4437594 14.569946
1.0965446 5 5.2028723
-1.8581989 1.9361684 19.22439
-6.3279762 8 2.1677828
-5.63027 -2.4601145 10
-3.0336413 -1.713448 17.368572
-2.4067006 3.5466621 10
-5 3.7059593 7.5275731
8 0.46456814 1.0461965
2.1073165 -6.6103745 10
-4.0334759 5 3.3296587
-4.9741974 -5 1.5426642
0.82272106 5 4.4788961
-0.85055411 2.5449152 18.698528
-8 -7.142252 7.6343336
-3.3316813 -1.0159901 18.935991
-3.5890217 8 7.8900909
6.9482384 2.8584111 10
-1.844142 -8 2.0891244
7.695538 8 0.3547883
-3.7069635 -5 2.3784876
8 3.2311792 1.3182844
-5 -4.2273874 3.692317
4.2984467 -8 2.6525667
-1.17276 8 4.5461574
7.1100411 4.2190061 0
-2.1700077 2.725071 15.309941
-3.589509 8 2.8142343
-0.54529333 5 2.0190895
-1.936978 -2.9141619 13.901499
2.8413041 2.0283771 16.837736
5 4.3969479 3.6650314
-1.5806773 2.175504 18.496674
7.0604758 -8 0.8629629
-1.0819132 -3.3116837 15.540894
3.1527636 -1.4905863 11.122244
-0.2101296 -2.6763241 16.18421
-0.021201789 -5 0.99729013
-2.5910802 -5 3.291965
5.8745165 5.1455326 0
-8 6.7706404 7.652246
0.84928155 -5.2461414 0
2.2065969 -2.8307052 10
3.3176694 7.9089308 0
1.7646025 2.7151954 20
2.7701249 2.1151092 11.53065
0.14161432 8 2.1027243
-1.4111223 8 6.4010696
0.75838041 -2.577168 10.098339
2.1500282 -8 7.026577
-3.6342964 8 8.5910835
-1.9599516 -4.879518 10
0.5228045 8 8.6908674
-5.5707245 0.45615947 0
3.4157262 6.3591952 0
2.0109994 -1.8069823 20
-8 5.0770636 4.2407255
-5 3.4349625 1.5549548
-8 -6.4635739 7.927474
-8 2.5921073 5.3959045
7.2314138 -8 2.8648758
2.2389677 1.4796758 15.520538
5.3110504 -0.9046073 10
1.9621468 1.8322208 10.149384
-5.0544591 -4.2413192 10
8 -2.6879373 7.0416126
-0.23232515 3.477118 14.082306
4.9479828 8 6.8649154
1.8148203 8 7.0500112
8 -1.5012434 0.028601373
6.9971037 -8 4.6428003
2.7448354 -6.9650655 10
5.8450942 8 3.6744432
-0.96596229 3.3468571 18.100056
2.7834406 2.0988839 13.717342
-8 5.7096701 0.55786294
3.279294 1.1886878 11.926319
7.9440231 -5.0234356 0
-8 0.70783758 5.6489711
6.1666112 8 1.0763317
1.875798 8 0.57456911
-1.0581152 5.4197645 0
0.39860591 -2.6550879 19.980959
6.6924028 -8 1.6870192
7.399642 -5.2098222 0
-5.1154222 8 8.9218197
3.3366392 -0.99964631 17.489239
-5.2976332 8 5.7060485
-5.2498527 -8 8.7008486
5.6483693 -8 0.98487931
0.75829172 -6.5952768 10
-3.4928887 -0.072203144 14.534207
-3.6906755 2.9207335 10
-3.883955 0.76802802 9.999999
2.2307289 2.6752381 15.917711
-1.4687803 -6.0240622 0
4.5485606 -4.0745597 10
2.2758265 5 4.0129085
-6.4024596 6.9452453 10
5.4736857 -8 7.7502985
-5 -3.1610224 5.274312
-5.7269425 -5.6074996 10
5 -4.9254889 1.1399088
-0.35619614 -3.0383012 20
-1.1311643 2.4467251 17.670153
0.74356163 -5 3.7945104
3.1230884 -8 7.4664588
0.99776816 5 1.5910497
-0.5680418 -8 8.0231819
-6.8788772 -3.6862302 10
2.6050756 6.1478033 0
-2.6751866 0.22022289 18.65255
6.0624013 8 3.8802981
0.61927819 8 7.5910959
3.605185 -6.7864671 10
6.0749564 0.28243354 0
-0.93254101 -3.5198684 10
0.26138955 8 0.94650865
-2.3717182 1.2684042 18.245192
-7.8676848 0.82737279 0
-5 3.1576986 3.6004596
-8 3.6910305 7.9770379
-6.7281232 -5.306026 10
6.6611757 -2.2605357 0
2.3495064 -1.3037543 12.440023
-5.564662 -3.4131908 10
-0.57437134 -3.0915475 8
-8 -3.638319 7.0181332
2.1162276 -2.769207 17.559229
5 0.46608537 2.9724634
-5 -3.1189246 2.2299776
-8 6.7200122 6.9773436
1.6090361 2.157685 12.152843
-0.40815973 7.6154857 10
1.4380574 -5 3.9314837
2.9843874 -7.2719679 0
2.6767426 -0.20641506 10.890476
8 -3.9571838 5.4468017
-0.40534994 -2.6543279 10.604624
-5.2126722 -2.125169 10
1.263643 3.6493614 8
-1.6710167 -8 1.6825198
-8 3.8891535 4.7130241
-4.7401652 -3.423981 8
-8 -0.55997062 1.5864813
-2.169107 -5 0.49876261
-5.8047695 2.9598787 0
0.037099123 -7.1994586 10
0.34101215 3.4664133 15.991747
5.6658068 0.70424718 0
-8 -5.3397694 6.1417937
-2.5612526 -7.5793915 10
-8 1.0612692 2.8680811
-5 1.1835093 3.8059304
-3.475069 -0.25312993 16.014664
-1.6828656 -3.3829229 8
-3.2929668 1.143615 17.615301
-2.5173371 1.4533103 20
8 0.74819326 9.6095161
-5.9583483 8 5.1930785
-8 5.4574065 7.5550303
6.4482374 8 7.0231543
-7.1284389 -8 3.5118232
3.1344223 1.5248998 11.026535
0.78577632 -5 2.5906129
-1.3007565 8 8.4495621
2.6762953 2.760746 8
7.8580618 -6.2710795 10
1.0120858 -0.84219384 8
2.7936761 4.9999995 6.7006454
-4.5118113 0.50679386 10
5.0535388 -8 0.010608113
6.1950598 5.664155 0
-4.3527217 0.43154782 10
8 3.2128086 2.6633403
-2.5543177 -8 2.5914571
-2.4821417 -0.9067409 8
-8 0.036589265 9.5660248
-8 4.7214494 8.9686155
-4.6690884 8 6.7382383
6.9319911 3.8925669 0
2.3311539 8 0.017930865
2.2060146 8 3.5189247
1.7156024 7.1782079 0
1.1308336 8 9.2325439
-0.50749063 -5 6.5258274
8 -1.6883967 1.4798942
-2.5098276 -8 4.8345571
-5 -4.5020008 3.7887807
-0.15076245 -3.4851511 12.06971
-6.6384721 -8 2.2403526
8 1.825942 3.7865877
-2.3908482 -2.3336871 20
-6.888792 -5.8708782 0
-1.4238232 -5 2.3496122
-2.68836 -2.21474 18.956135
-2.9221258 6.6126232 10
1.0970204 -3.3071012 10.721035
2.3949094 -4.1072102 8
-2.6438017 0.49877313 18.245342
-5 -2.047173 3.769258
-5.055316 8 1.2778622
1.8043425 -1.9900249 15.103247
-2.4312525 1.173656 12.279592
-5 -2.7152839 1.2286644
2.3418436 -2.5840487 14.876102
0.43462503 5 5.508285
6.516541 6.7375312 10
5 0.98963243 2.9551342
-5 4.5354729 5.9995661
-6.7857394 -6.5695572 10
-4.5690327 -5 6.3020377
-5 4.1953268 3.4021449
2.7155278 8 0.98863721
-8 -7.0581813 7.0974655
2.8169088 8 7.8797255
-3.2702579 -2.8565412 8
-8 -3.513905 3.1849337
-5.2595854 -8 9.4131708
5 2.9776182 5.9328909
8 5.5958729 2.8013663
8 -5.3594913 4.9235654
-2.9925632 4.8554049 10
-3.1193109 -1.5531719 14.160742
-8 1.3607206 2.8440394
0.54294527 -8 4.4492559
7.476037 0.043572843 0
-5.936142 -2.1242168 10
0.71853614 -8 9.3640909
-2.6982861 -0.015213273 12.321776
-5 -2.6187184 5.2396383
-8 -2.8577747 1.1289035
-6.8780904 -5.2860203 10
-4.1080542 8 7.5729423
-7.4131789 -3.3480134 10
-5 3.4250586 7.9884639
7.4135337 2.5368028 10
3.0189357 -1.7409606 17.195024
0.65106034 -8 7.7189775
2.9275661 1.9119008 12.454893
8 -7.6037025 5.051096
-4.1749701 -2.2324693 10
-4.1457338 8 6.8590021
-1.4502902 3.1743021 10.289743
2.4047952 8 5.3906674
8 7.0832748 4.4165239
8 -3.5738201 1.7534004
4.3478022 -8 8.3362722
0.47568408 -3.4531491 10.805707
1.4331447 -0.1066525 8
0.033863597 5 3.8262961
-4.1997967 1.5913413 8
8 -3.4329634 5.4619207
5.7860212 -8 2.8219888
-6.3003683 -0.13899779 10
-8 -0.95460069 4.2248449
8 2.624754 3.3646727
1.8681667 -8 7.7252083
1.4585929 7.9114947 10
-2.6910238 -3.7550695 8
1.8979728 -8 5.4595723
3.4766064 -0.23751774 11.548693
-0.98185182 7.800643 0
-0.88592541 5 4.7822447
-5.4370446 -8 7.9429407
-5 1.212925 1.485311
6.6793041 -8 3.2227564
-1.8786106 2.9453599 14.53701
-4.8289032 5 5.6977081
1.2138629 1.0318565 8
-3.3627882 8 9.2134018
5 3.5595336 2.906251
-4.0741787 8 8.8391113
8 2.0316296 1.2759441
5 1.1641246 0.97862124
2.2042434 2.6969743 17.563276
-1.6547661 8 7.9570055
-1.9657247 -2.8927217 10.02461
-6.5562658 8 5.1520638
-3.4809442 8 1.5902257
4.5077133 8 8.5978289
-2.6537962 -5.9464374 10
-1.4872328 4.7795911 8
-5 -1.4561698 1.7296848
-0.81007844 -2.559078 10.013442
-4.9303894 -5 1.9442374
3.9214542 -5.3140855 10
4.4130068 -1.2058681 8
-2.1890824 2.9257467 8
6.4112253 8 2.4685478
-3.4084432 -3.445312 10
8 -1.5012438 9.9119673
-8 5.869637 0.17839453
-8 1.9413784 8.4826603
8 -6.3178687 3.1784616
8 -6.8600311 4.7585158
5 0.81621563 6.1278472
-3.0896158 8 5.4244757
-2.2968268 1.3875932 12.435716
-5.572804 1.3388457 0
8 -6.9686041 1.542474
-5 -3.5418725 3.2000856
-5 1.1729102 4.3743916
-1.6915073 5 0.079435937
8 1.6511375 6.0650549
-5 2.2354136 7.766706
5 -2.0505559 1.9586323
1.3212527 -4.4393959 10.000001
0.33700192 -3.4668083 12.077539
-5.8358927 -8 1.3736169
-1.9388967 8 2.6384258
0.088922501 8 6.0632629
2.9223735 -1.9216155 14.372638
3.516387 3.1246266 8
-0.12781978 4.8001995 8
8 7.3695812 5.4072599
3.7816348 5.367866 0
-2.4379921 -1.1561223 14.716493
-8 -1.9423647 1.0364943
-5.2230368 8 3.0729771
-7.1174812 -4.0636482 0
2.9522486 5.4401841 10
5.2566633 5.3734961 0
-8 2.0565856 5.5561395
-8 3.6899862 8.5296717
2.4120629 -8 0.9889729
-5 2.9612045 4.7342043
8 -2.5609093 5.5686865
-8 7.4938698 7.5539618
3.5069327 0.29696411 10
-1.7144384 8 7.7465277
-8 7.8610129 7.6249495
1.7845842 -1.3165536 10
-4.6528058 3.3634732 8
8 -2.9380057 1.7480688
2.6063051 8 5.5253229
2.2443297 -8 5.6939216
0.93450248 -3.3564005 13.830989
-8 4.0897493 3.9839139
-2.3354096 -1.3261889 15.349068
3.4279163 -0.69874597 10.376556
-4.348691 -6.0947914 10
-4.4731293 -6.2136211 10
6.5064435 -3.8332477 10
-8 5.7334604 3.9002371
1.97174 2.887785 12.241405
-5.3917942 8 8.3014135
4.0494585 -5 3.7189178
1.7302518 -5 3.5724096
-0.55735683 8 5.6117926
2.6900165 -0.088606626 18.993151
1.3613387 -2.3133237 19.708534
8 2.120966 0.18636802
-2.5781517 -8 1.1717932
3.9459386 -5 1.6180735
6.405652 -4.4121656 0
-5.7629318 -1.5470736 0
-3.9686475 -5.0034866 10
7.0138216 8 9.4004717
-0.93729126 2.5145643 14.048576
-1.2082253 -8 5.4558401
2.7855248 -6.6882381 10
-2.5941637 8 1.533792
-6.3572245 8 4.5071435
4.8121815 2.0510204 10
4.1334529 8 0.087579489
-8 -0.19644284 6.0976944
8 3.9533625 0.59456247
-6.7234488 7.6396899 9.999999
-2.720021 -5.6025367 10
3.439827 0.61094522 19.232996
5 -0.23502588 0.19574635
-4.0107718 -8 7.5081358
0.88529658 2.532758 15.496814
7.9989271 8 6.8759103
-2.3863497 8 9.8881874
1.5255853 -3.1340559 17.54516
7.5146146 -7.7419105 0
8 -1.1123202 3.5936918
-1.4533018 -3.1726923 13.472002
-0.72752494 -2.5630507 10
-3.4687169 -5 1.041853
-5 4.5635309 4.4606981
-6.7930136 8 4.8532701
2.6866782 5 1.5705725
-2.0401998 5 0.22049905
3.3996608 5 1.6189094
-1.1844722 -8 7.2615309
-8 -7.4886985 0.5337618
2.4952183 2.3089762 8
2.5885029 -2.3364165 12.571989
1.6625021 8 4.799788
-2.4925218 8 0.30335903
0.97024262 3.1144404 20
-1.4464209 3.7797513 10
2.1223783 5 7.5892754
5 -1.8302002 4.1278048
-6.7231774 -7.2436166 10
-3.2061241 1.3907555 10.494978
-2.532578 -5.8774986 10
-7.9304266 -2.0846987 10
-6.8613791 -3.7153773 10
-8 5.508729 0.47804916
0.18084699 -5 0.48331881
2.7546558 -7.2664528 10
-1.1695511 2.4332931 14.96584
4.800334 -0.45362926 10
1.9996675 2.8648655 19.960669
8 4.9372883 7.6108909
6.4047256 -7.2639174 0
-0.97489262 -1.5697645 8
-1.1283388 -2.4477139 14.170209
7.7742906 -2.5344028 10
-0.55422354 5.2404189 0
2.5616705 -0.80266941 10.148688
8 1.4744644 9.818264
-8 1.1292644 7.5930429
2.3407736 -7.5705724 10
-4.9815154 5.1664963 10
4.7834044 7.6661348 10
-1.9007328 1.8936347 15.427336
-5.2427998 -8 0.84556466
1.1401099 1.9430934 10
2.3351436 1.3266124 16.276901
-1.3116826 -5 7.8433452
1.6849647 -5 0.23361063
-5 4.9410934 7.3480077
1.1153529 6.3237114 0
7.1421261 -1.8872142 10
0.12277491 3.4879076 11.460819
2.1653552 1.5968288 12.31181
-5.3179913 -1.3300254 0
-0.27415752 8 1.0928851
-5 3.450485 1.4874125
-0.34498596 6.6951551 10
6.9098148 3.7114773 10
8 -2.6725724 4.2255802
6.5228653 -3.236155 0
8 -6.8843522 3.9980931
-7.1128626 5.7916827 10
-8 0.27060574 9.872776
5 -3.0442848 3.2820776
6.4822173 8 1.835112
0.059518013 -2.693294 15.153442
2.6832387 -0.14876017 15.458126
-6.4983954 0.55429149 0
5 0.94405997 4.3545475
0.89745045 -8 4.2218947
-0.1151824 -5 3.7432446
2.2802224 5 5.9267402
-3.2348132 -1.3353209 12.22823
4.3801789 4.7621713 10
8 -7.6529918 1.7803779
-1.0110122 3.3331914 12.105934
7.2674017 -6.451623 0
-1.7698832 -5 0.18479633
-7.854959 -8 8.4552507
5.9578705 -7.2829638 0
2.1967225 1.5469085 19.830967
1.2336607 -2.3281167 8
-1.0688481 -2.4685307 19.617485
-0.20284152 -2.8714869 8
-0.69992244 -5.1751862 10
-5.6036043 2.6995935 10
-2.9426844 1.8836157 15.840864
-0.49958417 -3.4507952 16.950657
-7.5085583 -4.3952355 10
-6.5322194 5.9411125 10
1.4993302 1.7106035 10
-8 6.8543406 8.7498894
0.75415313 -3.4111087 11.336742
5 -1.6041565 6.6211476
-6.5015383 8 0.33285916
1.0386646 -3.3248029 18.65062
8 6.7640314 0.95513898
2.4796729 -1.0370055 15.831957
-5.3186769 8 4.3942943
8 7.5901022 4.1081705
8 7.5564575 4.2439356
-8 -2.4842148 3.2645071
1.5039937 -2.2236876 19.054815
0.64601612 -3.9387169 8
-1.5580533 -8 2.0279
-8 7.6652126 4.5845704
-2.8951478 8 1.5705937
2.4820671 7.4335728 0
-8 -6.265717 1.1699939
3.1091428 -7.7352529 0
-3.2389579 5 7.8786302
-3.5155308 0.64797914 10
0.71827865 -3.4219911 16.797609
-0.84774494 -5 0.88268852
8 -3.507997 3.3726616
-5.7158494 -3.3390346 10
4.5428643 -5.6067524 10
-8 6.5584235 7.4148526
-4.4373894 0.34208381 10
6.9246559 3.4238665 10
-8 -1.9544348 9.9286175
-1.4307418 -2.2697148 13.204424
-5 4.1323395 2.4889767
-8 -3.4394383 0.27604252
-5 -2.1565652 7.8347082
-2.6595607 -0.35890803 10.873892
8 -6.6378303 3.1752954
-2.9334836 -5 6.7461424
3.4360898 -0.64889234 14.610444
8 -4.2390299 9.1374416
2.6609652 -0.34644321 11.196742
3.7495873 8 7.2355371
-5 3.7094698 6.5712662
1.466867 -2.2470157 16.942654
-1.9724813 1.8218861 13.872808
1.5776925 -3.5796447 8
-4.6723804 -5 3.1505311
3.2020302 4.9779129 8
-3.3442616 -0.9745183 14.966327
-6.6555562 7.9625945 10
-1.013871 2.4877679 18.321152
-5 -1.4761877 5.9271479
-1.9993048 2.8651631 19.791553
4.0472775 5.5061998 0
5 -2.8402867 4.9279881
6.9433298 -2.329628 10
-1.5746453 -2.1792941 16.416008
1.2016504 8 7.0434027
-6.6433802 8 6.458025
-7.4857516 4.9361067 10
-7.8480091 6.1488376 10
8 5.2970428 3.149066
-0.69832134 -5 4.2752099
5 4.2396655 6.9452415
-1.779512 -2.9983294 15.602513
1.955683 5 6.8425822
8 -1.0483698 5.8701801
-6.6284304 -8 2.7942801
-1.959757 6.9428687 0
-8 -0.015476704 8.4203777
8 1.6971706 6.1288147
5 0.29930449 5.379117
-5.4410505 -8 4.2718153
2.1282892 8 0.32473624
-2.7103524 -7.7106047 10
-3.0021143 1.4496088 8
-8 -1.2761366 3.2342634
-2.8994467 -1.9575305 15.74544
-1.3925486 -7.6532879 10
5 2.2398965 5.3317542
-7.6494761 8 5.816618
-2.6899011 0.089628421 18.300602
-7.1316218 -5.3803959 10
-0.95325005 -2.5089803 19.361946
4.6758747 -4.9097242 10
-4.7208476 -5.6303072 10
-3.6362257 5 4.5222263
1.6280137 3.6204534 10
-1.1492953 3.2912436 16.777594
8 6.9531918 5.0999646
-8 -4.0979843 4.8545713
-3.3244438 -1.0398498 18.96777
-5 1.939018 2.9833751
1.1682205 -0.65395439 8
-8 4.5718627 5.9736838
-5 4.194232 0.81154466
2.6754694 -2.2304473 11.803365
-6.8071594 8 2.6641083
-8 -4.5607843 6.908206
-7.0120668 -6.8121076 10
3.9850788 -5 6.0679722
-4.7612309 -3.3292654 10
6.8837023 2.0587454 0
-2.2258015 -2.6792822 17.399216
-0.25203717 4.1680694 8
0.0080500618 -3.499207 10.172907
0.52215022 3.4485726 14.904938
0.32107019 2.6638241 14.900407
-7.9999118 -8 1.698948
8 -0.71116447 4.4407921
-3.4350791 0.65915298 19.680092
-8 -3.2384388 3.9826717
-5 -3.8934751 1.7436066
3.3041189 5 1.8521466
7.1221333 8 9.2526531
7.297102 -3.752984 0
-2.7042401 7.6139092 0
6.5449066 -8 2.7695169
-1.7092865 3.0358658 14.630618
-1.6734446 3.0550232 11.325833
2.1389713 -2.7505419 17.368643
-2.6117232 2.3081222 16.063988
-7.0005727 5.7850151 0
8 -2.525533 3.5494051
2.6551838 -0.39775357 18.16275
-5 3.4783773 7.5826511
-6.8002687 -3.3137441 0
-5 -3.637548 3.863842
0.630867 2.6217868 14.245695
-1.8530436 7.0056586 10
-5 -2.4334371 5.0889816
5.5369215 -8 7.238071
-5 -3.6474607 4.843163
3.2611854 0.63950688 8
-0.97075272 5.8910112 10
-0.26537734 -3.4738626 14.380888
8 -1.6861192 5.5190182
-2.6348286 2.2799683 15.347352
-0.8401078 -2.5485702 12.131052
7.2255673 2.7389026 0
5 1.4850861 3.9768119
8 1.5913486 0.37983245
-2.8171022 2.0578671 19.531713
-2.4022772 -1.21977 11.363335
4.8474979 8 6.3073606
3.4092324 -3.7329218 8
7.0778303 2.1961164 10
-5 4.240428 7.7011185
4.0678515 -6.1670489 0
-8 6.8853564 3.8596115
3.9967172 -0.59739524 10
8 2.4548101 2.9636867
-2.0794055 -2.7994261 18.730074
5 3.7605379 1.7007581
-5 0.85696411 5.9071407
6.4026766 3.1597588 10
-8 -3.0191188 6.5275679
-0.47790736 3.45293 19.007401
-0.43688917 -3.4569702 13.002863
0.10751081 2.8815472 8
2.8199298 -5 1.2344241
1.9286928 5 1.1311977
-5.0782962 -0.66705298 10
5 3.5207009 5.7629557
5.6247253 5.5669394 10
-1.2644477 -5 4.8331113
-0.89001566 0.41558039 10
8 -4.1582918 2.1230977
2.0338173 5 3.9747174
2.058682 -4.2657228 8
5.5669956 5.2939606 10
-7.1571856 7.6223807 0
3.170599 -8 2.344038
-2.7560377 -2.9396129 8
-5 -0.20274854 5.2010984
-1.5083841 5 2.6449506
-7.3030014 -7.2819486 10
-2.3212385 1.3487422 15.45177
-4.0228252 1.1951374 8
3.3606162 7.5504375 10
3.5816598 -8 2.6752203
-3.563839 -5 4.7932901
8 4.1309047 8.3300028
-3.8747082 -8 1.1104709
5.4557228 2.4718611 10
8 -0.86257911 0.28212181
7.8038507 -8 5.9719167
3.5680392 -5.362042 10
-1.4685252 -7.5778103 0
7.3972926 -1.2177887 10
8 3.6942005 0.63809294
-0.32288688 0.75126374 10
8 1.7450924 7.0895538
-7.3238087 8 4.2979698
4.8706789 6.8282671 10
-4.0132971 8 2.4787068
-6.4311314 1.5232303 0
6.5020437 -7.1592474 0
-4.4181995 -0.04627943 8
8 -4.4571352 5.07548
-5.4856734 8 0.017982721
5.2718511 -5.3430591 0
1.7864112 5.0190754 10
-1.0854816 -2.4627101 12.212332
3.7302604 8 7.1730728
2.8688512 -8 3.0850639
5.2096 -8 7.0600996
8 -1.3170202 0.49130863
-3.6066382 -1.927738 10
-8 3.1437888 7.3779969
-7.8343067 -6.1121421 0
-3.8324513 -5.6399608 10
-3.1306553 8 6.1689816
-7.1272793 -0.35527086 10
2.7847054 -8 5.0316167
-8 3.2264223 8.8925533
3.4604378 0.40168202 10.553372
5 3.423646 4.8246374
-3.2313175 -0.59858978 8
4.1713924 8 2.1358128
7.3884034 -7.7526083 10
-2.8776112 -4.1235371 10
-3.0245495 -8 0.69375455
3.1195991 1.5526327 10.854438
4.6721249 -4.8001432 8
-4.5718222 -1.7331352 10
-8 -0.27335489 7.2892928
3.4652112 -0.35321763 14.687843
1.7894335 8 8.3269186
5.9804668 -8 5.4722257
5.3981915 7.0292692 0
1.6174268 -3.0849657 10.578411
-8 6.7150393 0.0011940203
2.0584133 1.7359543 13.648667
1.3743142 5.6500845 10
7.046144 -3.9781141 10
-2.6105375 0.6630156 16.385637
-1.7737987 3.0013833 13.50757
-3.4103563 -0.756634 13.643484
-5.998486 7.2699547 10
-5.769474 -6.5319452 0
1.961117 -2.8965032 12.65999
-8 4.3099642 7.4750309
-8 -1.9451056 3.1848264
-1.797558 -4.3425298 8
-3.1493373 1.4969962 14.515912
-0.76047492 -6.9401693 0
-5 4.4861317 6.0302854
-1.1234565 -6.4157567 10
-1.894418 1.8999493 16.08736
-6.4877253 -8 4.430254
-8 4.0604572 6.4900217
5 2.0951257 7.300972
8 0.41756195 5.9560566
-2.1501009 -0.73293442 8
-3.3564978 -0.93418169 14.021564
2.7730813 3.4219286 10
8 2.811595 0.93001676
-3.35496 -6.8485131 10
5 0.74514133 6.5130358
-1.4531112 5.2993493 10
0.074641272 -0.81512368 10
2.709218 -5 2.0489125
-4.2652054 -7.315341 0
-2.6381788 0.54867715 11.182528
-2.5745521 2.3534155 17.754116
0.56033701 3.4448116 11.191363
-2.5029674 2.240253 8
-2.2012806 -1.539654 15.561979
-5 0.35068464 7.5266376
-4.4233308 -8 7.0540981
-1.3236067 5 5.6316981
7.7672358 8 5.3257751
2.5665548 -2.3631601 19.152069
5 -4.6500821 5.8812227
-5 -1.9239929 4.1542163
-1.7196341 -2.0747333 15.347252
-8 1.1467726 8.2596321
0.24279097 -3.4760873 11.849594
2.1062791 5 2.3558035
-5 1.9868666 2.3724222
-7.1291518 2.6882257 0
-2.6856213 -0.59206045 8
-0.14468718 -1.7488043 8
1.736912 1.6452707 10
-8 -3.4370031 1.3072052
-5 3.3727083 7.9489164
-1.3816047 -8 2.8284631
5 -3.0386758 3.0610757
1.3796442 0.87818247 10
8 6.634016 1.5968987
8 -0.57874322 2.3054075
-2.6819003 -0.16064151 12.347147
-5 4.7926846 2.969671
-8 -1.7193329 3.6920021
0.60246617 2.6317246 19.044119
-2.4323545 -8 1.6919264
-8 -0.28345668 8.7771692
5 4.1364288 5.9786801
7.6958456 -8 7.2661991
5 -3.0908937 0.24443436
-0.43960097 2.6504691 16.75219
7.143424 2.5887201 0
3.0521846 1.6787564 19.527332
1.877293 -1.9170743 14.255898
7.6643648 8 6.2327681
-0.67076659 -7.6092892 0
6.7362442 1.2516186 10
2.2814775 -5 5.9534392
3.4893031 -0.10860778 15.869282
-3.4981976 -0.018302102 13.538134
8 -4.9771791 2.4119797
1.695482 3.0432444 15.822865
-4.5738153 -5 7.2546597
3.1954174 4.0043898 8
0.23342273 -2.6736996 12.912918
-2.3495219 1.3037295 13.834133
-5 1.8890486 1.1032462
7.6016994 -2.443799 10
-6.2838612 5.9736409 10
-4.9190669 -3.6676269 8
8 -0.47466063 9.4123755
-4.3364067 -5 2.287941
2.9736357 7.6436577 0
-2.8531876 8 9.9767561
6.8239632 1.4688153 0
-5 -0.96316719 3.3706498
-1.9078962 -3.5669672 10
-1.6655663 -2.1221647 15.595976
1.6591508 4.7264967 8
-0.53140545 -2.6401253 15.236706
4.4017143 3.6047573 8
5 2.5123434 0.273633
-8 6.3129125 1.3894454
1.8931637 -8 6.3657045
0.92270947 -8 9.2684555
-0.80281997 8 2.4959481
-8 4.7199211 6.6114783
7.5744815 -7.4263105 0
-6.7724414 0.97069311 0
5.3810592 -0.40944707 0
1.5074801 6.0160627 10
5.8536711 8 5.8202209
-7.2484217 2.316103 10
-3.7115331 5 4.814146
-2.4191461 0.31229293 8
-7.1409512 -5.1547747 10
-2.0702231 -0.78229314 10
5 3.3125718 4.4216533
-3.2718191 -5 3.3040261
4.8991833 6.8638344 10
-8 0.52490425 1.0328687
-2.9576139 -5 3.8986967
-8 0.31035197 9.473525
-4.4408131 5.6660819 0
-5.3374977 -4.0636621 10
4.2275143 1.6369917 8
-8 -6.0285101 9.1891527
-8 1.0505573 3.4067974
-0.88315487 -5 3.8761692
-8 -1.2761323 1.6950808
0.73815918 5 2.7706921
-0.10715526 1.9110281 10
-2.0756207 8 4.2215877
-1.2149034 -2.4053352 11.714588
3.9732342 5 1.2099785
-1.721446 -4.7596288 10
8 -7.7959905 8.8554392
-2.932689 -1.9023165 17.66955
7.3327312 -8 8.4550238
-2.0214975 5.5354571 10
7.366807 2.6660018 0
-8 2.243027 4.247683
-7.5115962 -7.6043959 10
-4.7605677 -1.0928689 10
-8 2.9944286 8.1803598
8 7.3085842 7.4276562
-1.6515927 -5 6.8958054
2.5755293 2.2913551 20
8 -3.4166584 8.3458824
0.90952015 -3.3639784 17.091305
4.0615783 -0.0021941066 10
6.1290178 -7.1048937 0
0.54503912 2.6385889 18.300817
0.81997633 -2.1386094 8
-3.1200185 -1.5518479 18.848
8 7.2442656 0.88582003
-6.0570812 -1.448467 10
-8 -0.82160711 7.0218391
0.61796218 -2.6263025 18.384373
-2.3645954 -2.565377 17.847321
-1.085233 1.9081941 10
-8 -7.7473998 4.8033233
0.80023527 -5 4.9825521
-7.2651963 -5.8950844 0
-1.2492926 -2.3837271 11.172942
-8 -2.2483094 4.6719294
-1.4764993 -8 7.0265288
-5 1.8409741 2.0044427
-3.0436831 8 9.6516113
6.9005728 7.2580867 10
5.4032264 -4.1201367 0
2.8657441 -1.9985969 17.212349
-2.9407663 1.8872049 12.662706
0.43689823 -5 7.5271039
5.9555426 6.3923135 10
-8 -2.5209742 4.2388639
-0.88493061 5 4.7135553
4.6659045 -7.86235 10
-1.386307 -8 6.2597599
3.5675359 -8 4.8243318
-5 -3.1697979 7.0963717
-8 -2.0988364 8.0083847
3.5121479 -5 3.7512851
8 -6.7727094 9.1964102
-6.6321063 -4.778851 0
-2.2708755 -1.4288949 11.140219
5 -4.6879606 1.8240229
6.5033464 -8 4.5536542
-0.98286951 2.4986157 12.930622
6.3581762 8 2.6199241
-3.3105283 -1.0857229 15.330883
-8 6.3833423 4.4184203
8 -7.8859458 9.328249
5 -4.1246452 5.1061044
-6.5832262 -4.8154573 10
-1.0285835 -0.51440591 8
-2.5488513 2.3847318 14.617015
5 4.5568833 7.0640874
2.0496204 -1.7447474 15.15621
8 -5.3546448 1.558588
-1.4434092 3.1779802 18.6693
1.1169327 5 3.7146912
3.1501813 -1.4954171 15.216732
3.9762266 -5 7.1707988
-4.5028372 5 4.2412095
-6.8185043 -8 3.8069675
-3.8432589 -5 4.4273281
-5.7964458 -0.46905243 0
-2.9388361 8 3.2206564
-4.7855577 -5 0.45130739
-5 2.6600933 6.2932429
2.0545406 -2.471446 20
7.304009 8 9.3577356
5 2.3607659 6.7678256
-2.4016147 -5 7.8169494
-3.489356 -0.10806976 19.040295
7.0135989 -5.8972411 0
-0.31099552 2.6649592 16.005535
-3.5237944 -5.1808724 10
-6.2745757 -7.39819 10
-6.4397502 -1.6279447 10
-0.91698915 0.32096303 10
-3.630373 5.8327646 0
1.7275383 -8 3.1352477
4.4892778 5 3.5401049
5 2.6845658 1.4235328
0.94763231 -0.61355627 8
5 -4.4266005 3.9725707
-2.0322447 7.0626597 10
5.1256661 -8 6.9829741
-2.0225983 -1.771769 10.402109
-2.6710806 5.4287128 0
-4.9272099 2.4007497 10
1.9975618 -8 3.9761624
-5 1.3590102 6.6218338
5 3.4051037 3.4002814
0.67890644 -3.4331336 17.336248
1.3640047 2.3830173 20
0.57035518 2.6357365 17.692257
4.5119562 -5.9545174 10
-4.6189742 7.1726727 0
-2.5363326 -6.8268132 10
8 7.1021566 1.3923944
8 7.995739 7.4449048
-1.9797881 1.8145795 18.785696
-5 -2.8346486 2.7461066
7.3295665 8 8.9541988
4.187706 8 0.76387465
0.27834925 -3.4725852 11.062989
-5.4998698 -7.7647424 0
0.26082224 -2.1303394 10
3.3245857 -1.0393813 11.603951
6.2821584 8 5.6016884
2.5017836 7.4020486 0
2.6596 4.2276535 10
-1.0791655 8 6.2464743
-5 2.9842968 3.8447294
-8 -4.8726172 9.6513596
7.9860082 8 2.8529215
-3.2186892 -1.3672476 19.709503
5.8433771 -3.3449495 10
1.3130679 2.3436542 15.789221
-4.9274039 5.8657942 10
8 -7.4906378 5.2523532
5 -0.38677311 1.6264446
-5.0000005 3.8083885 1.0667657
-8 4.3246155 4.3341527
-3.3618803 8 7.053586
3.2042332 1.3942935 19.12812
-0.47341743 -3.4533725 13.025272
0.56614935 3.4442391 12.4885
2.5943465 -8 4.4912658
4.2637572 8 0.49005628
-5 -1.6933484 2.7324481
5 4.7453079 3.6334386
7.8241973 -3.6037114 0
8 7.2185993 1.5174543
2.4542236 -8 1.755479
-5 -0.4954887 0.65430975
-1.2926229 5 0.11828462
4.1352453 4.9999995 0.34926343
4.0420327 -5 5.3000875
0.32281661 -8 6.4080153
-7.6401787 4.485198 0
4.237711 -3.4117548 8
-3.4345317 5 4.3835545
-2.4078522 -2.5298772 14.592104
-3.3636858 -5 0.49608946
-4.2008839 8 7.9775019
0.23581183 4.0791397 8
1.0644311 2.9624805 20
8 -3.7627754 3.2038255
5 -3.7889745 0.43317163
-2.6054969 -0.67742121 14.900478
1.0433215 3.3233905 16.458761
-1.3088061 5.0597053 0
-4.147212 -8 8.2587976
5 2.4226856 5.007606
-3.4915833 -0.085457347 18.51498
-6.9260478 -0.040473938 0
8 0.027388573 8.1568813
-5 1.1587709 0.095366478
-1.981503 -1.8128643 14.276585
-4.9999995 3.6231599 1.5775952
8 1.3725586 2.1703014
0.9432112 -8 4.3688483
-8 -5.180584 9.553503
5 1.5221789 6.5660062
-1.1386614 8 6.2395468
8 5.1252489 9.7557735
-8 -4.4623933 5.0054712
0.91710246 5 4.5475039
7.0554414 7.3711686 0
-8 3.6155186 7.8277521
-4.7150574 -8 2.8146675
8 -7.7111597 5.8140187
-8 7.6342897 4.7443657
6.7789111 7.6858468 10
5 0.76850891 0.22302262
-2.0685833 -8 3.134593
-6.3968043 -8 0.80319542
8 4.1943827 8.8817329
-0.64813685 2.6157436 16.466579
-3.1922126 -8 5.2044654
-8 -2.7935898 6.4838891
-7.5162582 8 7.0182023
-7.8228588 -6.9324274 0
1.4085569 8 9.8030624
-1.9680791 1.8262882 16.896944
2.5881805 0.72690856 19.424385
2.1284082 2.7592106 15.835762
8 5.4909153 7.8511229
-5.0625248 8 2.827606
2.7505641 3.2773476 10
1.9793839 -2.8815117 12.4072
2.4751587 -8 1.131519
-0.49508536 5 1.7433089
-4.6006794 -5 7.1225748
-5 2.8765426 0.48598766
-8 6.8030009 8.176878
-1.4017091 7.7520075 10
-7.4392033 -4.5650668 0
4.2611866 8 4.996913
0.18535542 7.4616041 0
-3.3639958 5 1.5321256
-2.8041167 2.0736899 16.217916
-5.0884094 -4.5534263 0
-3.4393568 -8 1.1005003
1.395138 0.11014479 10
-2.1961088 5 4.9337974
5 4.4116783 6.1751065
0.48408526 2.6541793 20
-2.6870937 2.2162828 14.592047
1.3851266 -8 4.3969278
-6.9296064 0.71316612 0
8 -3.2949095 8.5141268
2.6783209 -1.976711 8
0.96297282 5 6.6896129
-5 0.4879089 1.3322978
3.2670002 7.9153733 0
-1.5846379 -2.1730156 16.648657
2.5635145 0.79739976 11.332561
-2.8899777 -5 1.0303454
5 1.5881953 7.4464188
3.274894 -6.1869726 10
5 -1.6160353 4.3261018
-5.3034782 5.6340013 0
-8 4.3756166 4.6771431
5.5306325 8 5.8102999
-2.5262487 -0.063522547 10
-8 -2.2608614 1.3692106
-3.0742099 -1.6375494 12.808733
-7.8840981 0.51978159 10
2.8834252 1.9964259 10
-0.85468626 5 3.9800649
-8 7.8653784 1.3113183
-7.1791687 0.75534606 0
-3.2944784 8 3.4822216
-8 -2.8854182 2.2946463
6.0980568 -7.6481066 0
1.0138398 8 0.8222425
8 3.3544006 7.046092
5 -3.0270171 5.4782853
2.6301208 5 7.8309288
-3.7848797 -5 4.2613568
2.4565938 1.102962 14.509604
-4.7718363 1.2069004 8
7.1708431 -0.70534873 0
8 -4.7777281 4.5356941
5 -4.1664257 7.1846752
-3.3303604 1.0203445 15.233273
2.0648837 -8 4.9001718
5.6061382 -8 5.6652083
-1.302928 8 5.1572456
-1.350072 -3.22787 17.114105
-8 3.4205871 7.1142788
8 4.8818307 8.8478966
6.6250429 -1.4113283 0
-1.1496587 -2.4402537 11.346353
-7.0263729 -8 7.6930342
3.381695 -6.2139664 10
4.9335227 4.3979225 10
2.6109374 -2.3090801 16.98037
-2.9957547 5 7.2012396
-1.6401075 -2.1381614 14.77529
1.2178355 -2.4034929 14.621708
-2.7868791 2.0946939 10.46772
8 1.640254 9.9778194
2.5296397 0.89420766 10.962194
-1.0859911 2.339421 8
5 0.31339425 2.3710065
-2.6370323 -0.55885309 19.298195
-0.38227797 -2.6569276 16.736713
-0.70569992 8 6.0997491
2.4524302 -8 1.8528149
-2.5410476 -0.86160612 14.357139
3.1529 -1.2739339 20
8 -4.9126616 5.9169331
8 -3.1011512 7.8301706
1.937988 8 6.2775397
5 2.1254661 7.7327209
-5.1378393 -1.014704 0
-5.2957244 3.3218608 0
-2.4085391 3.6646717 8
-4.8480425 -8 5.2265711
0.81733811 5 0.67598802
-4.0482945 2.9803352 8
4.6736135 5 6.0721545
5.9751368 -8 2.7529953
1.7287471 -5 2.2919092
-0.1126008 -5 5.516376
4.7900853 6.693109 0
0.88707602 1.3754156 10
-8 -3.1929655 2.584152
-7.6413646 5.3694143 0
-8 4.9495401 7.4252415
2.7603021 -0.55410063 20
8 -2.0848498 6.4580431
-1.4992081 -3.148155 11.943016
0.99604797 -0.090984702 8
5.9060583 8 7.0436473
4.2926731 -5 2.2428594
-8 -1.7884378 1.0669349
3.1656709 -8 7.4734187
3.002394 -5.3917499 0
-1.1529464 2.4391034 19.947048
5 2.5676942 7.082365
-2.2564797 2.6541052 14.515028
-6.493577 -8 9.269186
1.3506233 5 6.8465834
1.8965816 1.3819895 10
-3.7569058 5.7001739 0
8 -2.5154362 4.3938112
-5 4.1861253 0.16499424
5 4.2611332 4.8791208
0.72430658 -3.9994376 8
-2.187849 -3.9003263 8
-1.289336 3.2487631 11.547359
-2.8569365 -2.1336164 8
5 0.89203167 6.591424
-8 2.2748284 4.658505
2.4413469 8 7.7565012
0.3863101 -4.9641685 10
-0.33104095 3.4673953 14.08143
3.4436407 0.57222784 16.750977
5.4884863 5.51126 0
-3.5186329 1.6567909 10
-2.3022413 0.54674625 8
5 -2.015835 2.5521894
8 -6.9966793 6.7602925
-8 -2.361383 4.1923642
2.5881176 -2.3368857 12.887962
-2.3954334 1.230662 13.338182
-7.72645 -8 6.2963634
-7.6563401 -6.97295 10
5 -0.70715332 4.929832
1.46192 -3.1680861 12.306901
8 -2.6077726 6.2901745
0.79029512 -8 0.75039536
2.5159101 -2.4248707 19.938744
5 -3.3016801 6.085114
-0.21132779 3.4791861 14.960192
2.6160855 2.3028066 13.351304
7.6870198 -3.6043968 10
-5.9017382 -8 9.180686
0.27457392 -5.3189926 10
1.6699271 8 5.4677143
4.7672958 -3.3352332 10
5 1.8033204 7.3166723
-0.90057898 3.3666909 16.853415
3.4791188 -0.21201226 15.319713
-2.4193695 5 1.3617914
8 -5.3948026 5.2538462
