# .PCD v0.7 - Point Cloud Data file format
VERSION 0.7
FIELDS x y z
SIZE 4 4 4
TYPE F F F
COUNT 1 1 1
WIDTH 1937
HEIGHT 1
VIEWPOINT 0 0 0 1 0 0 0
POINTS 1937
DATA ascii
3.3333111 -8 5.3156319
-8 -5.0766444 8.4705181
0.79262859 -4.2797089 19.881742
4.0397367 5 5.7846699
-0.23914377 -3.6638288 19.983566
-1.5078942 -8 9.473526
3.1644998 5 2.3709195
3.4404745 8 8.3286905
-0.7521717 0.0465765 19.890343
0.65879756 2.7586424 14.074861
-8 -3.2934115 3.4804454
-7.4485159 3.6641243 0
-5 -3.5122643 7.536653
5 -2.5402079 5.0193233
0.44573921 3.3433337 19.955477
2.1935034 1.1840575 10.8091
1.2738695 -8 7.1217442
8 -3.9534953 3.0689158
3.6767759 -3.0778079 8
-5.2394199 -5.9789319 10
-5.4909554 -4.7184553 0
5.2232404 -6.4110556 10
2.1099751 5.7396669 19.115503
2.3983679 -7.7387371 0
5 2.2260718 4.3077207
2.076648 5 7.4431782
5 -4.1478548 0.23139353
1.6710393 -5.6540961 14.522049
-1.2432644 -8 6.9731379
3.5181732 3.1071014 8
2.2790861 5 0.73436272
-5 0.25231838 3.0398793
5 -2.4917014 1.5630552
2.9859385 6.9337282 16.866215
5 0.94625652 4.6061001
6.5648828 5.1080103 10
1.9915152 -5.473752 0
3.0126867 2.2590113 10
2.7245355 4.2942514 15.751902
-0.03586024 3.2755725 10
1.3561027 -4.024229 9.999999
-8 3.6597958 2.1851642
-0.52807832 -1.9037132 19.937975
4.4242954 -6.028944 0
2.642107 -7.1400318 0
5 0.87792528 2.0335665
-2.4839265 4.2916183 18.664845
-8 -5.819459 5.6447706
-1.8068554 5 2.9751482
-0.056635395 7 16.441425
-2.1720591 -5.0957766 14.945503
0.7524842 7 15.126831
2.6877327 -7.5801601 0
-8 1.2336074 9.4935055
6.8600073 8 4.285306
-4.6361575 3.1769979 8
-5 4.397296 0.28241539
3.248225 -8 9.9401369
-5.975666 8 5.0304012
8 2.7945085 8.1349707
8 -2.8661418 5.1492133
7.7119093 -8 7.6890745
-4.0726852 4.0546045 8
5 -3.740674 1.4733962
0.33969426 8 3.4654303
6.7977276 -4.693131 0
6.3134623 -5.9839711 10
-6.5796328 4.0934625 10
-0.34297347 -2.4654527 12.690135
-8 5.0824704 0.46663201
1.4244108 2.5987089 14.368384
2.3882909 3.159457 10
5.8603506 -1.5290873 10
5 2.6218772 4.8015943
7.5866938 -8 8.1329832
-1.3229263 6.2114224 14.320422
-5 -2.3870931 2.4868636
0.86172199 8 1.3326222
-8 -0.71061659 0.21540721
8 1.0570602 0.5123235
5 3.9245791 2.5797489
8 -4.9801216 6.5426579
-8 7.746417 6.843123
8 -5.5866432 7.0405335
0.60643864 -8 5.613337
-2.9217567 -8 4.0404029
8 1.8154459 7.2358012
-1.3712339 -2.9701054 8
-5.4766555 7.0569677 0
8 5.1142616 0.66674125
0.2694259 2.4780669 11.54694
-3.4530883 -5.1845541 10
-1.7204957 -1.8125809 10.255587
2.0025663 -1.4829193 11.406259
-0.78711987 1.1740816 8
4.0507231 -1.7343197 8
4.5771251 3.2584567 10
-0.682446 5.5320134 14.089472
-2.36796 8 1.1646932
-8 -4.5975361 5.2477336
-4.7634315 -8 9.2771416
4.1540432 8 6.6470342
2.4750445 -3.2364397 18.680227
-0.54819286 5 4.3788452
-4.2171421 1.0980906 8
-7.5557976 3.116225 0
-8 -1.2368002 0.20327339
6.4154406 -1.5685222 0
-8 -2.0215044 1.0075121
-0.47702289 5 6.1742258
2.010788 -8 8.6253185
-2.2141027 -3.2923317 8
-4.3928699 -5 1.2698977
-4.8810444 8 5.2014761
8 -0.43726385 7.1449137
-7.8187675 8 8.0672798
-8 6.1369462 0.224557
-8 -3.6864738 7.0155983
3.434629 -7.8102632 0
8 -3.566015 7.3223605
2.1347487 6.9999995 16.343914
0.97908664 -5.5894885 10
-5 -4.3262625 5.4626503
-0.81327033 5 0.75360483
1.0281254 -8 9.9937439
-1.4090749 5 4.8927951
2.4706304 0.29887313 11.832165
5 1.2880645 0.41174802
1.2051042 -8 5.1451073
-8 5.3370743 4.9685807
8 -5.7383232 4.99652
2.9812641 -0.35712171 17.178263
1.5335228 -8 1.359224
7.4374695 8 8.2821636
6.1867142 4.0154748 10
-5 0.5883534 0.25813437
-8 7.7595196 6.9647164
6.462431 -2.1075044 0
-6.7940741 3.7152584 0
0.22199011 0.39245772 19.983566
-2.4442894 0.50287372 14.158872
2.6910818 -2.8271852 15.693958
7.7312346 5.0091543 0
2.0644732 7.6577291 10
0.31813669 -6.7970853 0
-5 4.9115858 2.1535931
7.8049536 5.8282981 10
3.4151945 3.7725976 9.999999
-5 4.4578762 3.1565197
3.6275365 -2.7723789 8
5 3.0136147 4.6870284
-2.818749 -3.4444618 17.979805
5 -3.4234524 5.0853715
0.5661816 2.3690367 19.929876
-2.2914143 -7 17.294321
-2.4994624 8 0.57735503
2.3377848 -0.86780894 13.928101
-0.28817368 8 5.9431329
-7.0914793 8 1.6181138
5 2.8178635 1.0547234
1.8884625 7.560008 0
4.218616 -8 4.1762271
8 -1.8957014 3.7799337
5 3.3629944 7.9551506
-8 -6.4119172 9.9345865
-4.9317727 5 4.4633536
6.2225981 7.78268 0
4.282249 5.1790395 10
-6.1964765 3.2511044 0
8 1.3151426 0.40253216
-6.3382912 8 6.5282922
-1.5102645 -1.9887352 14.244567
0.29597998 3.7913513 8
-2.1794472 4.4032221 8
4.3329773 5 2.7686212
0.010865553 -6.85812 14.016085
-0.57365847 -5.3239465 14.065569
-2.1314418 0.21272177 8
-1.980196 -3.854718 10
8 3.3048372 4.1043439
-1.0480211 -2.2532952 10.289145
3.7999921 3.9688413 10
1.8456315 5.5642662 10
-7.7645192 0.53450418 0
1.5778311 -1.9323967 14.434266
-4.0605025 5 0.29877803
-3.253685 6.2928309 10
0.39276627 2.4663653 10.943228
-0.27020401 3.0769958 10
-1.3617865 7.1631379 0
-8 -3.0475008 2.9868059
-1.9577396 -7.6852856 0
5 -4.396409 4.4327517
1.7925613 6.9924684 0
3.9962292 8 3.9733462
6.4180322 8 6.7605343
2.1820443 -1.5309103 10
-1.5449245 -5 0.38829947
-5 -1.5892954 6.9133425
8 -7.8392048 2.555155
-1.8053493 7 16.289791
-7.8801999 5.8448162 10
-8 1.4433273 4.5683999
5.6919241 -8 3.2077296
8 3.6860542 4.9184585
-2.6756933 -3.181766 15.667305
1.6640446 7.7758436 10
0.53165269 -2.9846785 10
1.6832293 0.88453114 8
8 2.9846792 6.8986282
8 -3.3863368 3.0098095
8 -5.4533668 6.5083637
5 0.067049026 4.2169404
-0.6774857 7.0292792 10
8 4.3038077 8.2413244
6.4548349 -4.1095657 10
0.34941685 -7 14.901872
-8 -2.1352766 5.2702065
6.9317722 -8 4.0287714
3.8411045 0.053895652 10
-2.9668565 6.1213017 16.684658
4.7572136 -2.2294455 10
8 4.0990238 4.8901706
-1.4788015 -2.0082536 14.233745
-1.0960374 2.4141173 14.213947
-0.46263289 -5 2.0957065
-0.91257477 8 2.6991701
3.8482132 1.448256 10
-2.7712951 1.7059314 15.874147
-8 -7.5951943 9.5788746
1.8292304 2.7576966 10
-7.9128375 6.9832802 10
-0.65786111 -5 2.2983198
5.4056649 8 7.2611575
-7.3673754 8 9.2964859
-6.0126538 -1.4480865 10
-8 -7.3780055 0.043172933
2.975445 -5.026835 17.233624
2.7812939 -5.0391388 15.904922
6.8012195 -8 2.2488735
7.4567356 -8 4.8690515
7.2512746 3.9120221 0
0.26910114 -5 6.4036341
8 3.6611004 4.7607908
-8 0.6447134 9.3849154
-8 2.5320647 0.64867735
6.3078775 0.028449059 0
7.9664559 4.1856747 0
4.0362058 -8 6.5014424
-0.035850272 -6.0387158 0
3.9026718 -5 7.6814184
3.6162474 5 4.4216104
2.256501 -3.7230361 18.952772
-7.8919816 -4.3976474 0
-8 3.3500772 8.4855194
-5 3.4867172 1.219611
1.6535836 4.6640134 14.508919
-2.2923741 5.0645337 18.91293
-5.6746626 -8 0.2161162
0.84355068 8 9.4241152
-3.2961192 5 0.87695545
-4.6939774 8 4.9293509
2.2835772 -1.0009289 13.241549
-8 -4.1524677 1.5847152
4.4429388 -3.9864628 8
2.6534107 0.8340143 18.371288
2.7070794 0.82282996 18.278332
0.18904346 -7 15.337538
-1.5245776 -8 5.3300614
-0.68823004 -8 8.1714487
-8 1.0029291 2.0855894
-2.9372432 -4.9527054 17.597092
0.95049429 -5.9341125 10
-0.19893992 5 5.0674529
1.0601878 0.24965858 8
0.6746558 -4.9846425 19.906818
-4.4089723 5.1873164 0
-0.99268508 -3.2742436 10
5 -3.5108204 1.7062664
-1.1243849 7 17.537479
-0.32212806 -7.1987696 0
3.7477465 5 2.3407946
5 2.970046 5.2410035
7.3302603 -8 4.1622267
5.0362916 8 5.961256
5.2855148 -4.7189131 0
1.4275893 -8 2.73265
-8 -0.22905314 8.5532112
6.8674855 -1.2992015 10
-5 1.67278 7.8367562
-4.2908754 -5 2.4274096
-4.6079941 -4.4826646 10
8 0.72343731 4.6562829
1.3513594 -8 6.2433343
-0.44995534 -4.3786488 10
5 -3.9638076 2.6830003
-0.92507076 8 8.3485794
1.1666573 -1.5190685 8
8 4.1478348 6.8604369
2.3158484 7.176877 10
3.9579248 -1.0439824 10
5.1259975 3.262023 0
-1.2982992 5.840044 19.687878
5 -0.77175236 3.3400519
2.6062362 5 7.87747
-8 0.28552544 3.4952114
6.5965528 -6.8195548 10
4.9608154 3.8482168 8
-3.4321165 8 7.7717557
-3.896101 0.084476709 10
-5 2.0949881 0.34888411
0.56322336 -5.2897234 19.930504
3.4835281 -5 4.3024812
4.3109059 5 7.7129908
-7.9820437 -5.4502482 10
8 5.5394135 5.8858294
-2.4268384 -2.2190595 8
-1.9413078 -5 0.38685608
-0.92173171 5 4.2924795
-5.4106474 5.8007278 0
1.5528989 8 5.4340372
-8 -7.1190701 2.3506405
-0.074214198 3.1771905 14.0103
5.5921679 0.25209022 10
-5.4757705 7.5802231 10
2.862844 5.6585426 10
-3.9128761 1.5261025 8
-1.2120299 -5 0.55234241
-7.8926578 -4.3051271 0
-5 -3.3652377 5.5274515
-2.3242977 -0.89830601 12.593735
8 3.2929277 5.594707
5 -1.9163489 2.3625069
3.8980718 -8 7.4752674
8 3.0607827 8.039279
-5 -4.9155374 6.8708134
1.3458755 -5.7824197 0
4.2724929 0.89232665 10
-0.9779985 -6.7156415 19.830488
2.6784091 -2.7305284 15.67201
5.6798067 8 5.0511699
-8 2.8144677 8.5429039
0.56222147 -4.4069328 14.059805
-4.5568447 8 7.7586966
-7.4017029 4.187222 0
-1.1932428 -8 8.8956223
2.1587651 6.7731957 10
8 2.3768072 0.53807366
-5 -4.5162678 3.7414441
-7.7454419 4.0111523 0
-4.3870559 2.3382354 10
8 0.2665813 7.8701162
-2.2364473 8 4.6069021
8 6.2844543 6.900743
4.2208447 5.7609553 10
5 -0.64070725 1.3258576
-4.0251112 -7.7865944 10
5 -3.8675125 1.5406152
2.6479859 -0.80703247 18.380684
0.97278351 -3.5910103 14.164322
-5 -3.7051525 2.8991089
-5 4.8615799 5.9130259
6.6699576 8 4.2584438
7.753499 -6.8993354 0
5.5780458 -6.7394028 10
2.9349153 1.6127706 10
-2.8913748 -4.1616421 16.243715
-0.13700345 4.7742004 19.983566
1.2909118 4.2115507 10
-2.2821696 6.5922613 18.924263
-5 -3.6126153 5.5287852
-0.80860531 -4.0098338 14.117182
-0.18926498 -2.4915285 13.632376
5 2.1657426 5.5808129
-0.67012703 -5 1.161376
2.9375298 0.17848039 17.594364
-5.4614983 -2.8514473 10
-5.0124025 8 4.1540322
8 4.8497906 8.6329517
2.288064 7.1579089 0
8 1.9820089 2.6057045
-0.28029823 -0.84234393 8
-6.2369213 8 2.2996182
0.93252206 -8 2.692971
5 -3.5869782 2.0811739
-7.5835447 8 2.7927656
0.6534577 6.530777 19.911324
-4.3819389 8 7.920722
-5 -2.6274779 4.9116344
8 4.477541 2.9114292
2.5063152 -5.8980994 15.373934
5.9643478 6.6635461 10
-0.18335986 8 3.4180784
8 3.941246 2.1091933
4.2798886 -8 2.9142787
0.82284594 7.0470586 0
5 -0.60826761 2.132354
2.9394863 3.0645885 17.575748
8 3.1685238 2.5842245
-7.6580138 -8 9.8842707
8 6.2118387 0.7838816
-7.2237043 7.0356746 10
0.29155254 -6.6061673 10
-8 -4.7029967 1.28386
1.5304605 8 0.22624671
4.5570574 5 4.7795348
-5.5178003 -8 3.5833468
0.55615616 5 7.6519513
-0.64069515 -7 14.461708
-4.0269995 8 9.1231565
5.1391397 8 7.3404961
-4.407402 -6.20683 0
1.545864 -1.9600393 11.03338
-6.8501682 -8 7.8941016
7.0141864 -6.9377599 10
5 -1.0284256 6.6617222
-2.356137 3.6686559 15.148776
-4.5426302 8 4.6641798
-3.0672355 5 6.2349372
-4.8514957 -5 2.6174777
8 -4.5344257 6.5802703
-0.86356819 4.5548582 10
-1.146656 3.1925569 8
-1.5279666 7 16.646681
-2.9923952 -5.5008578 17.072355
0.97259986 5 2.4080398
-8 3.0649083 2.1889646
2.6193852 -5.0704117 0
0.98630673 5 1.8295484
8 -3.6965246 1.6341113
1.974966 -3.2267818 19.252993
6.2703023 -4.3398986 10
-4.8382502 -3.6929798 8
-2.3010485 -5.4163003 10
4.6409664 -0.048783183 10
-8 -0.44882798 6.3795114
4.8819084 -5 2.714673
-8 1.6409638 9.3296995
7.4587808 -8 7.5593491
5 -4.5862994 2.5425994
-3.6457267 8 0.24622202
2.8068209 -7.1336842 10
-3.0945745 3.7695117 8
-2.8190513 0.02933836 16.021126
-3.8994503 8 8.5887156
-5 2.9410081 3.0271521
2.4619515 8 4.705091
-1.4008789 8 7.2040176
-8 -1.0408821 0.98042494
-8 -6.1669836 4.1377144
0.82066607 -8 7.1432872
0.3513397 1.5827782 8
8 -1.5192481 5.7512193
-3.790175 -1.4739732 8
-8 -1.8131032 9.7730265
-2.8862317 3.2412188 17.772114
3.3113556 -8 6.6267653
1.5489438 5 1.4746252
-7.7266173 -0.2795155 10
-1.1122069 -5.4654217 0
5 3.3640838 5.7655973
-1.973668 1.4202563 8
4.3807321 8 0.19326627
2.6685054 -4.6508479 15.654855
-2.580601 -5 0.18686152
-8 -3.01057 9.1568298
-8 -4.0598917 9.6971159
-5.3473539 8 6.1146569
-8 5.2708082 8.1715183
6.2124853 -8 5.2322621
2.7519643 8 9.0007725
-5.2128706 -8 2.0063114
5 -0.45896292 4.8175225
-4.8872852 0.95259416 8
-3.4228411 5 0.53269923
8 3.4506102 7.804143
-1.9944381 -2.9829726 19.238848
4.3038807 -8 3.4441409
2.7236371 -5 3.1703048
8 3.1927252 5.457974
-3.3141384 -5 0.50812197
4.8952732 8 9.8603954
8 5.7654886 2.5009215
0.71392381 2.3811104 10.729582
8 -4.9677172 5.3556266
8 7.6613407 1.6101106
-0.23282349 -3.5598264 9.999999
4.767746 0.41920632 8
-4.5301352 8 8.5093985
5 -4.0552812 1.7716848
8 5.9693842 1.5368873
-7.1824732 5.9975982 0
-3.9169931 8 2.1917062
-5 -0.60950232 6.6907949
-8 -7.2396584 8.6529818
0.30246568 8 5.2517505
8 1.3294182 8.9071789
-0.23866177 -5 2.7366743
2.1839187 -8 5.240685
-2.8658876 1.8587874 16.165274
7.2834582 6.1803432 10
-2.5163832 8 6.0021248
-1.6760173 1.8503401 14.508746
8 -6.0874395 5.0403571
4.2616215 2.5884981 10
-5.3581262 7.1235118 10
-0.083493948 -6.8400698 10
-8 -7.7973523 1.4619775
-2.4405475 2.8043935 18.739979
-7.6686773 6.0254426 10
-1.8882492 4.5013561 14.677116
-8 2.7138085 7.8024893
-4.4101129 7.1637206 0
7.6009059 -7.5610061 0
0.58513033 -5 0.29646921
-1.9464774 -1.5591004 12.832201
-2.8626208 5 5.0683126
-4.2267132 -6.4321623 0
8 1.7205544 4.8691683
-5.0047274 8 8.574955
-1.6542845 -5.267169 14.510265
0.10392833 5.3393083 10
-8 5.8242812 9.9918594
-1.8125505 -5 5.9091253
1.4778924 -5 6.7140422
-3.9266849 -8 8.5261097
6.9113445 6.1815014 0
-1.1278853 -8 3.9662447
1.3886235 2.2018335 14.351235
0.083393671 2.4837954 10.323146
-5.6160307 1.6855757 0
-0.64873129 6.304338 0
-1.3899313 -8 3.6954472
1.5273962 -7 18.112526
-1.5830612 -1.9264655 12.042223
-7.2482538 -8 6.5915995
-0.018362671 1.3421652 19.983566
4.8521261 1.2238045 8
8 3.4108729 8.448267
8 1.3143244 3.8797188
3.876092 -8 6.0737014
5.8341713 3.8075192 10
2.1844296 0.63531995 19.032814
-4.1964693 -6.1252928 0
8 7.4075365 9.1509676
5 3.3079975 2.2001798
-5 -2.5370865 0.30430698
-8 -4.6018658 9.369544
5.0375147 -1.3203897 0
-2.2299445 -4.4045935 10
-3.0742776 4.8594365 8
1.1654658 7.2410593 10
4.0065784 8 9.0337992
3.1020527 -7.8640575 0
-8 -7.3690324 0.45706522
-8 7.1684594 7.9219909
1.2487383 -7.7576303 0
-1.5122758 -5 6.6542454
-2.7542348 3.9091403 15.821642
-2.5292094 6.5836334 18.586414
6.8767996 5.8936987 10
-6.9147096 1.0378678 10
8 -2.4123662 5.436625
-7.6822314 -8 2.7149911
2.0753539 -8 0.28326628
-0.59132528 -3.4197607 8
-2.9996629 -3.903595 16.996792
-1.8585644 5 4.3147016
8 -0.95572662 1.2421329
3.8627508 -5 5.7729521
2.5458436 5 2.2756252
0.71478832 -6.1281605 14.098526
4.413219 -6.9328947 10
-0.14583302 -5 5.8042936
-5 1.0257244 6.1948161
8 -0.53079438 8.9744949
5.0089788 5.0827093 10
-3.6346819 -8 9.9350634
2.4983115 -0.021807251 11.775913
-2.174772 -6.9816594 19.043541
-6.5399122 -5.2203579 10
-2.3577886 5 1.2096373
8 -5.0080137 1.7419198
-2.6925294 2.5255742 18.303534
2.8950226 8 4.2963862
0.43402362 7 19.284704
2.0584207 -5.9246683 14.822753
0.93339634 7.7594557 10
3.9696779 -1.2905329 8
0.37762904 -5.239459 14.027019
-1.6711607 -1.9764894 19.473721
-0.52292532 -8 8.3748264
2.305407 7 17.751751
1.7117262 -3.2397122 14.544177
2.6346829 -8 3.107868
2.6141262 -5 3.0013175
8 -5.0973587 7.5332856
0.91018289 -5 2.8737779
2.3309255 5 2.6868134
7.072093 8 5.1496344
-8 -7.6025796 3.2236278
5 -1.1074525 0.88637364
5.3519182 4.4815321 10
4.8624654 -5 5.0836768
-1.3048139 5.922914 14.311382
-7.1726742 8 8.5360012
4.8072181 5 5.1868362
-5.1707621 -8 3.154655
2.658828 -4.4580345 15.638094
4.3949833 -5.7395458 10
-0.19564724 8 5.6049218
6.8106432 6.8218889 0
3.3348351 6.5771098 10
6.7508464 -4.7550268 10
1.2115326 3.5284097 10
2.8904915 -5 7.808043
8 -3.2687361 4.0499835
8 -1.2142934 4.4125657
-8 -2.1655219 2.4606857
2.6857853 -5.6811514 18.315214
0.81937665 0.5601728 19.876057
1.248477 -7 15.474098
3.3919566 8 9.7024632
-1.3232024 -7 15.409966
2.1074536 5 3.4189267
5 -2.9813564 1.9887007
-5 3.5900307 2.7875278
0.49309635 -0.64665616 8
-0.83726406 8 9.9137173
4.9500709 -5 5.3324614
1.4498503 -8 5.6803613
-0.94324464 5.6140594 14.152967
2.4734869 0.28329617 12.173159
6.685164 -3.4079485 0
6.8340182 5.7105808 10
-2.1863894 1.1833649 10.540306
-8 -7.0750961 6.4445367
-6.6916099 0.13458252 10
8 5.8595057 6.0332761
6.9274187 -4.9505625 0
8 3.7209501 5.5897326
-2.5462315 -4.4355388 15.44307
0.62493753 2.5881557 10
8 -4.4796014 5.7232122
-0.51407814 -8 7.8205709
6.5625563 8 5.4464979
-0.012102127 -5 6.4467278
-4.8512573 5 5.8600941
-7.2590599 -8 1.7153269
-0.13283148 1.5420961 19.983566
-1.7905488 -5 0.0045852661
4.5830088 -5.3208389 0
7.9148893 -8 3.0123396
-0.82565606 -8 7.9626079
8 6.3950891 0.43622202
1.0831947 -5.6753492 14.211876
0.69904518 -8 4.4363632
5 -2.2567852 6.0701766
-3.5615816 -5 1.6509923
-5.7019424 -2.4822865 0
8 -3.3878341 7.9000883
-3.8584387 -4.5440521 10
5.1218324 -4.8903275 10
4.615634 8 0.22753
4.8266912 5 5.2154951
2.586401 5.6916866 18.487352
-8 2.2259598 6.5918322
8 -4.7460532 8.3041954
-5 4.0739098 2.7611532
0.12503386 -5 7.4738717
-0.055186749 -3.6492498 10
1.3986535 -6.4703331 19.643198
2.583169 8 4.2415152
-2.4879584 -1.8438904 15.342139
-2.0742583 -8 0.058147039
-3.149621 -8 4.5478272
1.6667218 8 4.8455849
-3.4367881 -0.21350545 10
2.8693509 -4.4932222 16.175932
2.5540147 -8 0.11234652
1.8288075 7 16.353672
-8 -1.9513237 4.7607279
-1.8782936 2.1260047 19.323229
-3.9484024 6.4103918 0
-8 -2.1406465 1.3795516
-0.18475717 -7 17.234165
5.3800154 8 7.4856758
3.4529443 -8 3.0439315
-8 7.4908562 3.8644471
5 -4.7475991 4.0446477
5 2.1462419 4.0294104
-3.680522 6.8471384 0
3.4864624 -6.020689 10
-5.09305 8 7.4094734
1.4554973 -8 8.1967764
7.6269073 8 1.8455422
5 -4.0857925 7.2343731
3.3106687 8 8.353591
-0.38372922 4.4623718 19.968657
-4.0492802 5 7.2410173
2.8802819 1.5880276 16.209576
-3.8664896 -5.2053299 10
-3.52426 1.589993 8
-0.02495575 -8 7.8816071
-1.5097101 6.2291946 14.408478
4.1805239 -8 1.0017055
-2.1838851 -8 2.7818313
3.4852014 6.0295963 10
2.7743483 -5 5.9514074
-4.5080919 -1.8312929 10
2.3992364 -8 8.2020988
5.0708628 8 0.33812523
2.5748951 1.4591568 18.50728
8 7.9287376 0.4916037
-1.5785971 -3.441483 19.54097
1.5341027 -6.765852 14.425982
-5.0000005 -3.0421808 7.6546407
-0.038396835 8 4.9210668
7.1615605 -8 9.0458546
-0.67694545 -4.5683098 8
-5 -1.596683 3.2474813
-0.035912428 -6.1756144 14.0144
-8 -4.0433545 6.8547688
7.9548349 2.2591429 0
8 6.6462936 1.4936739
-5.8123226 8 2.003463
-7.6307673 -1.0431123 10
-8 -3.1744409 8.1517534
-8 -4.0296335 8.682435
1.6168029 -8 4.4504457
-8 6.3276625 4.9481621
-0.35314023 2.4660277 12.158581
0.1792202 -8 0.18741006
-4.6953888 5.6085114 0
-1.4712816 -3.9469733 14.390223
2.7504947 7 17.251835
-8 5.2051797 9.45051
-0.73568112 -8 9.8234901
8 -7.2463355 8.8560581
2.4275231 -1.7471123 15.237461
-7.2038217 2.7551155 10
0.024136186 -8 3.6565084
-1.3444583 -2.0964119 10.364522
-1.2432523 -2.1586418 12.961052
8 -2.7928965 2.6536231
-7.3630753 4.4509826 10
2.9771273 -3.6259398 17.217621
3.552685 -5 3.7781057
4.5467839 -1.3349597 10
8 4.5762615 3.4760993
8 7.2048349 5.703011
-0.38599604 -5.9207025 19.968174
0.93100715 -5.4454317 0
-5.5983033 4.8011875 10
2.9887183 -2.2803879 16.892662
-5 1.5519242 0.17432594
-8 2.9289179 8.6297264
-2.1931658 8 4.0753684
-5 1.8071253 1.7783661
-1.9104217 -3.4339123 8
-4.2906828 8 5.3616533
2.4291897 -7 17.189867
7.5776224 8 0.60532689
8 -6.6710753 6.935091
-8 6.3905802 8.9191866
-5 2.9610262 7.0799932
-5.2320633 -1.5050881 10
-8 -7.9735646 2.6957932
-2.7144935 -8 8.491107
-8 4.1559935 5.7806268
8 -4.063674 0.72942406
-2.8904431 -6.1875949 16.240847
1.7396606 8 3.7595999
-3.9263225 8 0.42825341
8 3.784543 7.7225227
-0.067944765 7.1264863 0
6.6125016 8 0.98577142
-2.2116253 -2.4131656 14.978256
-4.8516994 3.8017771 8
8 -6.4184732 9.2217808
-0.15905499 5.498189 10
8 -0.87442005 7.8220129
-7.708148 -5.469264 10
-2.9995441 2.8319745 16.995663
-3.0412571 -5 7.4018378
5.5256338 4.130291 0
1.1344528 -0.35348201 19.760828
-0.14963579 4.2350674 8
6.8163519 -8 4.052959
0.21245784 -7 18.239309
8 3.4907718 7.2479887
1.6139753 -8 7.1765609
0.38259688 -5.943521 19.968897
1.9414179 -6.1257372 14.719942
-2.8578334 -4.0742764 17.859514
2.9854741 -2.4813459 17.138206
-3.8616071 7.2888837 10
8 4.2235489 3.6353657
-5 3.2977085 6.0454202
-0.54136205 5 6.6127172
-0.12679195 -2.3070211 8
-1.4166884 -5 7.8070946
-0.0047088861 -5.2243409 19.983566
-2.7189198 5 3.2435465
-4.5668221 5 1.7596637
-3.114625 -6.6791873 0
-3.2525799 -2.7389894 10
-2.1200762 8 2.4902825
2.5638862 3.7575448 15.47365
8 -4.6253567 2.2541573
1.2326292 -7 16.789217
-5.9676352 -7.0504751 0
-6.1745901 4.8369074 0
-2.3274436 -8 4.9598317
2.0810332 -1.3810141 14.149104
-2.7339239 8 4.4516668
-0.47798234 -7 17.858278
-6.3378634 -6.9703722 10
7.984827 -8 8.9076109
-5 0.49832797 3.4758964
0.8965053 -0.035457611 19.859663
-5.4565821 -2.1880422 10
-2.2614262 -8 3.6439152
-7.2387695 0.6286304 10
8 -3.8063776 3.3448005
-2.9674788 -5.1430354 16.690582
-8 -5.1201792 4.9257336
4.1456294 8 2.9447551
6.3140087 -8 6.6608486
4.5492911 -8 2.5687933
4.8825502 -8 0.61037523
-8 3.1977434 2.9914618
8 -0.73640144 7.3560467
8 4.9704762 9.1971703
1.7043672 -5.0800505 19.449594
7.867506 -8 4.9485307
1.1745871 -1.1086615 19.742962
6.9312234 -3.2325554 10
8 -3.072365 4.3304529
-4.4517746 -5 4.7886925
-2.2711806 -8 9.9673862
0.33220112 6.7303743 14.019403
-6.9229221 0.79924655 0
-8 4.2930212 1.0396845
-1.7712458 -1.4503607 8
5 4.8320584 1.6703217
5 -2.7246761 5.6969876
2.1703885 -7 15.159767
-0.14633179 5 2.2525039
3.1399903 -8 2.590368
-1.7522364 -5 5.4785161
2.8723955 8 4.0285425
6.7910247 8 1.3028228
2.9126971 2.9490123 16.30934
3.8046188 -8 8.5431404
2.5321813 0.63140059 18.581264
5 -4.7401857 3.0943718
-1.025474 -1.6242795 8
-0.71404964 3.3494384 14.089179
8 7.9907141 1.0125999
-8 2.1989341 4.5632253
-0.7656635 -2.3741224 10.035672
2.1701956 -8 1.7926937
6.9512987 3.8922572 10
-0.19161797 8 5.8441682
8 -5.3958993 9.0448103
5 3.2263036 7.1144109
-4.6390667 5 6.9611592
-3.9188612 -1.6925752 8
5 4.5613809 2.5021644
2.6271071 -4.6195436 18.416847
-5.3628969 8 5.9363365
-4.0064821 -0.73590267 10
4.9532871 -4.3324199 8
-6.5109153 4.5865374 0
-1.8181883 1.6974429 10.225449
-4.194993 7.7734308 10
-8 6.1211433 4.998477
-1.3608961 7 18.232849
0.90648228 6.507719 19.857544
5 1.786335 7.2007833
2.4593928 7.2207518 10
4.0537181 5 4.6060305
8 -6.672307 4.5355096
8 6.3231344 4.5840635
-1.2836761 -5 5.0756721
2.8643632 2.6252079 8
-1.2995652 -7 18.568197
2.387099 -2.5812204 15.18714
0.89798176 5.2982302 10
5 -2.8121579 1.5714685
-2.1967087 8 8.0868053
5 -4.4157648 2.6651144
-0.83030927 -1.6391059 19.873734
2.5861974 -7 17.030674
8 7.0322104 6.9675193
0.82481396 1.7222382 8
4.094306 4.06919 8
-4.7531404 8 7.0360122
-8 -6.5604706 9.2609434
-1.619314 -2.9272616 14.482933
-2.642658 8 0.15590012
-8 5.7329659 6.8701038
-2.5458779 -8 7.3863392
5 3.0744476 5.858335
-8 -6.0418801 1.9747512
2.1061649 4.3071852 14.869893
3.068774 -8 9.5469074
-7.2516184 -8 5.2373505
2.2292316 -6.1948175 15.013584
-2.9590421 -3.639008 17.389687
-0.7267586 -8 6.7774606
1.1103593 6.8449526 19.771557
0.48893014 -5 1.5740228
5.0306649 2.7439969 10
0.57928872 4.1154051 8
8 -7.2745428 5.7724342
-8 -1.7877202 0.05117894
-6.8494086 -2.2001925 10
6.8244162 0.42240953 10
-0.24197841 -3.9179347 8
5.6964006 8 3.7920575
1.671093 -5 4.246954
1.6645291 -5 0.47913361
4.9497113 6.8490944 10
7.6673493 8 8.4098253
0.75364137 7.1977134 0
8 0.98820233 7.9260855
-0.47589439 -2.4438415 13.017059
0.25028983 4.7717075 19.983566
8 -5.2585859 1.436421
2.1306996 -5.4675846 10
8 -7.2006397 0.22173367
4.9736209 -0.6919179 10
8 -1.7262982 4.441782
2.497757 -6.5342655 10
-5.567987 5.2596202 0
1.9307318 5 1.5382978
7.7131667 -0.32026678 0
0.44554004 5 2.900897
1.7559779 8 8.3847389
7.7800336 -1.8994527 10
6.9705319 -7.8293195 0
-1.5603095 4.4015002 19.554258
5.828104 -1.6874611 10
-5 4.5370789 5.9662261
-8 -4.2677236 5.5244484
-8 -5.5811553 2.2514789
-2.256391 -5 5.035789
5.073185 4.0417662 10
5 -2.5123048 4.4112315
-2.5506282 8 0.82679808
1.3049262 -6.9044466 10
7.4076815 2.9789894 10
2.56007 -1.7742038 18.532959
3.9430118 8 0.29643238
-8 1.021148 9.9526701
5.7514539 -4.2172642 0
3.862607 -8 8.6588039
-5 -0.94737071 0.30230951
2.9500639 6.3017092 17.475113
-6.2844381 -8 0.95975578
2.5787292 5.8532434 15.499357
-1.0377723 -5.5991731 0
-5.1715207 -8 4.8576741
8 3.8654757 4.2839804
0.60810715 5 2.6697495
5.3856654 8 7.4104109
-2.1743453 3.2628405 8
-8 -3.5078256 9.1580839
8 4.6775703 7.6482553
8 4.8705316 9.5128412
7.218123 2.5197029 0
-5 1.0088193 0.080771923
-4.4555573 2.0770831 8
2.1677043 1.2231331 13.397104
-7.9064054 -8 6.0470276
4.9999995 -4.524857 6.2436833
-4.6249361 8 4.2049875
5 -4.1253629 6.0099549
-8 6.0572214 3.3181791
-8 0.42282248 4.0328498
-0.14957142 -0.18155789 8
-6.7308378 -8 0.12595885
5 -4.0386939 6.4365177
1.9744792 1.5178523 11.773455
2.3593054 1.7360719 8
0.13644886 -3.8197911 8
-8 0.36904991 3.0858493
-7.6853437 -1.0391245 10
-2.0108528 8 5.6308951
7.288229 -8 5.857841
1.6838626 1.8285097 11.822195
2.1538785 -1.2610277 14.30746
2.3160033 0.92082262 12.741975
-3.8286715 -5 3.590508
-7.785387 -4.9070187 0
8 5.4502344 1.5224881
-4.2552061 -7.0554128 10
-5 -4.8991551 7.4589958
1.6214041 5 2.2969348
-8 7.2905879 6.6890607
6.6627941 -8 2.1097422
4.5083456 -7.3981428 0
-2.1635494 1.2439079 12.635254
0.99913973 2.2898154 11.219338
0.63290644 -2.1072929 8
0.6548841 -3.6946509 14.076898
-8 -4.7007351 2.2512035
-0.35422993 -3.7465217 19.974926
-8 0.72024655 2.0550585
8 1.0775287 8.7534161
8 4.3114109 6.9760933
-4.5548892 5 0.84384054
8 2.2289023 8.6018763
8 -1.0069628 3.2384596
1.9661863 7.8755245 10
5 4.7623129 1.3308905
-2.99823 3.2782917 16.98316
2.0197484 -1.6074467 19.215712
5 -4.6167126 7.4798326
-8 -2.1762528 7.0233397
-1.9462057 5.4733019 19.273888
2.5809038 5 6.9030972
-0.2714653 8 8.5963068
-6.885282 -8 8.6547174
-2.4535658 6.0321965 15.282568
2.2778611 7 15.878916
2.8607292 5.0485291 16.149397
5 -4.2134342 4.3799901
7.5815544 8 6.4147854
1.2848394 8 8.1794338
-2.9863093 -5.6646552 16.869741
-8 -2.3036137 2.6029098
4.3401828 -8 1.8332728
-0.67257994 -1.2990732 19.907261
-1.3239388 5 4.048152
-1.1324899 2.3319805 14.228706
-2.614624 -3.8690522 8
-5.0847783 -8 0.73094743
4.8891211 -6.0815625 10
5.4488192 8 2.8381765
-2.965261 4.611866 17.330519
6.7774944 6.2345161 0
5 -3.1221528 4.4180965
-5.9055839 0.73867774 10
0.7898134 2.3637228 12.593681
-0.42033708 -4.7591019 19.960875
-1.1460592 -2.8919497 14.232446
3.1808367 8 6.7639484
2.8139007 -4.9127202 10
4.6786928 -4.8054819 10
8 4.1937027 7.5277662
2.9912283 -5.8874884 17.083458
-1.937314 -6.4421949 19.28035
7.1303005 -8 0.96952343
5 -0.77689779 2.8547671
2.4273145 0.57918143 13.049152
2.1407454 -5 3.8256884
2.9822812 -0.1109916 17.168583
5 -4.8882709 7.3161092
1.9616284 -3.0612831 14.73171
-5.1463213 8 4.0829935
-2.8726091 8 5.2280245
4.765872 5 4.4249744
5 -1.3292148 5.4067192
-8 -3.4818788 4.210969
-5 3.6610422 2.0092974
3.3402445 4.4407678 10
5 -4.9417133 3.4693801
-7.2962284 8 8.7586908
-5.5538716 5.2215881 0
5.2205276 -8 0.74472094
-2.2676754 8 4.6204443
0.89952445 -5 6.3404632
5 4.5395055 7.4971271
3.4865232 5 7.7874479
2.7489481 5.2729034 0
0.80550128 2.3530385 10.562396
2.4332321 -7 17.03607
-8 -1.0642298 3.6001296
-2.2192352 -0.55260277 18.99416
-2.9669948 5.7630272 16.685976
-2.4669197 0.35343739 12.610289
-3.290719 5 5.0505438
3.6730564 -7.2762737 10
5.6921282 -3.732101 10
6.9412851 8 4.1938825
-0.89497018 3.4774539 10
8 7.2717848 3.1561785
4.566103 2.7569561 8
-6.2149887 8 5.0597744
3.8091183 5.5122871 0
-1.9123549 1.5961561 12.176432
-7.7132883 -8 2.1924539
-2.8472955 0.4699018 17.891945
8 3.4099112 6.5596156
-8 -4.2265482 9.1781807
-4.924933 -8 2.3358417
-8 -2.8007336 0.65339291
7.9614401 8 2.8140628
8 3.8510752 8.0626965
-0.79225779 7 16.989605
-2.7891426 5 7.6372752
-6.8405948 5.5019946 10
-6.6840301 7.3595467 10
-0.69405937 -6.638341 10
-2.0753369 -8 6.9903893
3.7439165 -6.851388 0
-2.279002 1.0025176 14.701964
3.8065951 -5 7.6079841
-2.4241133 -5 4.8078637
8 3.6706667 5.6905522
0.54171991 -3.2905216 8
5 0.87884355 1.5033457
8 2.2282043 7.3654461
4.6371279 -5 6.0665283
-6.3403711 2.7845016 10
0.70460188 5 6.410428
-5.422308 3.7702734 10
-7.3914986 8 9.6994553
2.8390746 -1.2367095 8
-3.9171665 -7.1173706 0
7.1426125 5.355443 10
-2.7473638 -4.9608393 18.199503
-5 -0.48821843 3.3478208
6.8385792 8 9.8796968
8 0.76742935 0.30706909
-6.7634306 -8 2.5601885
-6.3064165 -6.6777496 0
-5.5652905 8 8.8394861
-5.1097946 8 5.719902
-2.1307683 -5.246398 19.092411
-3.0528202 1.6400262 8
-7.0411243 2.7739189 10
-4.7384419 -6.817337 10
-8 6.4825797 3.121304
-0.78142816 6.2304907 19.884125
-2.4583969 3.9275441 15.290936
-5 -0.10324454 5.9960394
8 -5.3803854 3.7378535
-5.0347204 -3.8349478 0
-2.746881 -5.4555035 18.200991
3.2605228 7.348526 0
6.3897781 -8 1.4179431
8 0.81759739 1.2568469
-6.7627554 0.61457038 10
-8 -7.578722 4.2375345
3.7979131 -8 0.38479352
0.44971693 -3.9108791 10
5 -1.3432441 1.0493492
3.1051548 -2.6736875 8
-1.6913757 4.8757267 14.534428
-1.9044722 -2.0246096 14.685017
-8 4.9301519 1.2602988
3.5777173 5.7079015 0
-4.4832315 -5 0.6005522
-8 -4.821281 9.7275724
-5.2268195 -8 2.4581482
-8 7.9538169 5.5152049
7.2005329 -8 1.568081
-0.3089928 -5.5905609 19.983566
8 -1.6305885 4.9993544
2.4613252 -8 4.2389631
7.3736515 -1.6843339 0
-1.0565751 6.3520932 19.795502
8 -7.0402713 1.9373822
2.2497578 -1.0843706 14.929802
2.2156243 -1.5599378 14.979352
-8 -2.0020461 9.7802868
-8 -6.1611371 2.6975493
1.6683933 8 0.38235128
-2.0026665 7.1593595 10
-1.3780617 -5 1.7094851
5.9720869 -8 1.6318361
0.025945477 -5 0.21785736
1.1983135 4.3868656 19.732395
-2.8744862 -3.0239978 16.191738
4.0950794 4.6770811 8
-2.3819926 -7 15.264876
4.2769346 8 7.8210654
2.5481529 -6.9019237 18.5536
-1.464525 5.9621129 10
-0.52384484 -5.1491861 0
2.1299753 -5.2348251 10
2.9767196 -5 6.5876083
6.1272111 -4.2461705 10
-2.2740333 6.0621972 0
8 0.27351379 6.8140311
2.3262024 0.87618589 10.836056
8 -5.2264538 9.0504026
-5 4.3620968 0.6814357
-5 -1.9595026 7.0776901
-2.2544513 -8 0.84727609
4.4226408 -0.85261834 10
-2.7825499 8 5.2863636
8 4.878459 1.4164217
-7.7692299 -8 3.2139757
-1.6407253 -0.32328749 19.495834
8 -0.6260035 1.5994266
-8 -2.0980358 8.8030195
5 -3.12852 3.5691147
4.5129356 5 0.61469644
2.7113829 8 9.7174053
0.58828568 -7.05445 10
8 5.1115379 1.1507516
2.5291684 -5.7756343 15.413517
1.9447858 -7 15.064442
-0.84304452 -3.0557909 8
-2.2739294 1.0120876 10.942511
3.5801353 -0.87841904 8
-2.8508158 8 9.4621372
0.74450767 -5 4.3645778
-8 -7.4459867 7.5756807
4.0804729 0.94286656 8
-5 -4.9012504 3.3709965
-1.7989024 -3.6579316 14.611853
2.2625155 1.0528592 14.102043
5.8178043 -4.3625879 0
-1.0532119 -7 18.751183
4.5221357 5 5.8770537
-4.0753794 -5.3984146 10
2.3128757 3.505867 10
4.0359879 -8 5.7421675
3.1447945 -8 7.9693274
8 0.47917461 2.4418392
8 -5.4883661 8.9810448
5 0.91715759 1.6736736
7.6629066 3.2434134 10
-2.0780196 4.800313 19.150993
3.4138012 -0.071412623 10.000001
5.0979476 -6.2870216 10
-2.3545032 -1.6297634 15.146751
8 2.3059235 2.4151981
2.4294553 3.55878 15.240808
-2.8548517 4.1199446 8
-6.4836931 1.9756498 0
-8 7.994473 5.7890353
4.2105412 5 5.2740889
8 -5.79111 4.8941946
-8 -3.833128 0.48716295
4.4279037 -8 9.3975458
5.6146364 -1.5866063 10
-2.8531082 -6.3149443 16.125942
-5.4567266 -4.3477383 10
-5.0526471 -3.272711 10
1.5986381 -1.9143507 11.934425
-2.1945148 2.0735326 8
-2.4635963 4.8509498 8
-8 1.3547772 3.7763174
0.71445405 -3.9396837 10
-6.0598741 8 1.0402495
8 -6.7674656 0.49813285
4.5311441 -3.310771 8
0.87694204 2.1075969 19.863821
-0.10166001 8 3.1196136
-1.04969 6.80968 19.798567
-8 -1.7296026 3.8596642
8 -0.91956574 4.8132
-2.0532455 -1.4164902 10.079104
-8 -2.2879779 4.7132368
3.8466654 2.723716 10
-6.7922044 -8 1.7399371
2.4286892 0.31749666 18.760517
-5 4.1229744 5.5218921
5.9681883 5.4694386 0
-7.6455841 -8 0.27201736
5.1596279 7.8142815 10
-5 2.6495295 2.4786551
-8 -7.5532265 4.3375006
-2.0973666 -8 5.1706557
-3.8403306 -0.50518024 8
8 4.4122658 6.6427031
-8 0.62416124 6.3723683
8 -6.0261087 9.4144726
7.3093991 -1.9722834 10
-2.5008097 8 1.9739753
8 6.9870977 8.0123415
-2.0632095 -5 4.8387256
2.37201 0.52145779 15
0.39512959 -5.737956 19.966234
0.70689845 -8 8.248127
-0.88871908 -4.7617531 8
2.2976084 4.6939301 18.907116
1.6912618 -5 1.0564632
-5.2374625 8 0.28805792
-3.8338411 -8 5.1668935
0.51492441 7 16.599611
2.8720343 -5.7882338 16.184191
-5.2635851 4.3430576 10
-2.9807622 -3.7336326 16.816967
-2.3256168 4.5685883 15.113848
-1.652226 -8 4.1950192
-8 -3.5713832 9.9508505
2.5591993 -5.6569891 0
2.4288638 -6.6478105 18.760216
4.0840402 -5 4.9678392
-2.6361787 -8 3.4140434
8 -0.57020259 4.9233198
-7.6095309 2.2961571 0
0.1044727 -6.0875874 19.983566
-8 -7.6563549 9.511611
-3.0383415 -3.4278533 8
-0.68250251 -7 15.817243
-4.6040659 1.0072638 10
0.24127102 8 4.1398611
-7.8857679 7.818501 10
8 -7.4501343 6.4251432
8 -7.5705609 2.0216546
-8 4.6109276 0.69187176
5 -1.5517595 4.9602451
8 -3.8320787 2.6658716
8 -3.3621986 3.2549531
0.63185585 5 7.7000766
-0.51669002 -4.7898607 8
2.9671612 4.043756 17.312441
-5 3.8758571 3.0081847
-0.35262454 2.4649041 11.77828
-4.2233572 -5 1.5852034
5 -2.3677635 7.457202
2.7815747 1.6879556 8
7.2132106 8 6.1699986
0.70530796 -2.3946135 13.881975
-2.0117717 -2.4796753 19.224571
-7.3326254 -1.4832602 10
4.8296285 -5.3206778 10
8 -0.98710692 5.2647238
2.9433277 -0.17729926 16.460798
-6.8999906 4.5650692 10
5.0423141 -6.6820493 0
-4.9999995 -3.9878368 1.0224886
-3.0042706 5 2.1655569
-2.9472303 -6.6976209 16.497931
2.2329521 -0.992226 8
-3.8248856 -2.8429821 8
7.6822052 -8 2.1782172
2.6691966 -2.8917327 15.656052
-4.3058228 4.6414032 10
2.1371818 -8 4.8230767
5 -4.1176505 2.2691426
1.8664832 -3.0074108 10
-3.6910686 8 3.2137563
-5 1.5603471 6.5262156
-1.8476034 1.6710987 11.779464
-8 -0.61340046 0.31695968
-2.5301719 1.3428862 15.415255
-0.44406611 -7 14.966627
-2.2587585 -3.1941309 15.033861
-4.0969872 -7.3827782 10
-1.2410235 -5 3.0073969
-2.6822875 -1.5215018 15.678726
-2.4286549 2.7528625 15.239423
-1.5118562 7 16.044149
5 0.99700546 3.6202295
-0.052686691 -2.2312591 8
-2.6095755 -7 16.814484
7.0184612 -8 3.22927
2.5011978 4.5915942 15.36507
0.47092199 -1.6378793 8
1.8946769 -3.7099142 19.311327
1.7238444 1.6394979 19.435442
2.460489 -0.35195389 10.535601
-2.9104657 6.912406 17.697529
-5 1.9260968 3.6330774
5 -2.0305595 2.8267965
-3.9590559 -8 6.4935284
-8 0.85887718 7.2974911
2.3053975 5.340559 10
0.58939838 -0.047479153 8
7.4807591 8 6.3284278
-7.2665272 -8 0.24227634
8 3.81779 5.705565
-2.0455644 1.3692828 8
-2.7925024 4.929244 8
-0.2561447 -8 8.8633118
-1.1788448 2.1961222 10.084723
7.4909563 6.2384281 10
-0.010689497 -3.8020911 8
-0.84126842 5 3.586345
-2.9825485 1.1453454 17.16604
-0.27375758 7 15.186642
-0.87755728 -3.8041158 8
5 -4.5805802 2.0018597
-7.904304 6.7137952 10
2.0797024 8 6.2282968
-4.491818 5 6.8504939
-5 4.3338566 0.2629509
-8 -4.7580757 9.4664764
2.4836543 -0.28839684 18.665316
0.059584938 3.7819409 14.008489
-8 -0.90250719 7.339736
-1.9766073 -7.1289301 10
-0.33959126 -4.3460679 8
-1.7564135 -8 0.93087685
-7.2392936 7.3358335 10
-4.9220238 0.28844476 10
3.2141976 6.3252759 10
4.119801 5.2565751 10
-7.4836092 6.5843554 0
2.3489864 -3.8961802 18.850056
-4.2040353 5 0.97338206
-0.22190094 8 9.165143
-0.85422087 -8 4.7246895
-8 3.8779593 3.1328738
-2.3389268 0.18197632 18.861227
-2.4525754 -5.1665583 18.719147
-5 -1.4901208 5.5163908
3.5819335 -1.8125645 10
-2.6907573 -0.10460985 18.306602
4.0238914 -8 4.7343349
-1.5561016 3.0709927 8
-5.2062211 -1.0994947 10
-4.1621337 -8 1.3803706
3.9383717 -8 9.0142488
5 1.5958881 1.3492168
-8 0.44637918 7.544641
-1.0369738 7 19.012695
6.5168219 -8 6.1460953
-4.8559833 6.450635 0
-2.1984372 3.4237831 19.017256
0.7830776 5.6400394 10
1.8626444 1.6563127 13.429302
3.5621734 -0.13857645 10.000001
-8 -7.2475371 0.50681573
-1.497679 5.1288309 10
-8 -3.6314368 1.6297307
5 -1.6634938 4.3797956
8 5.1644249 8.8668528
-0.81659746 -5 4.5498447
8 -0.58626199 3.5383205
-1.7673876 5.1410189 19.403809
8 -6.0460453 1.1201919
1.7706956 -5.3620248 19.401405
-3.7181997 1.1181127 8
-1.6865211 2.3674116 19.462559
8 3.3764315 1.8892925
4.8012586 -5 4.2229528
-8 4.8362522 8.7358379
-0.10064328 3.3080912 8
-4.9538116 -4.9805942 10
4.0163984 -4.1586423 8
-7.2793541 -8 5.744915
-8 -7.1208334 3.9468858
2.349443 5.2314529 18.849548
8 6.05441 8.9559288
-8 1.5611024 2.6753469
3.6515498 -1.7613693 10
5.5361595 8 6.0042243
3.7893667 -7.7136974 10
8 0.2456131 3.936321
-0.3542299 -7 15.212328
-2.9963417 -0.60207701 16.965195
1.6980581 6.4301362 19.454178
-0.13626766 -0.91187763 8
-6.3279762 8 2.1677828
-3.6060944 -5.8508525 10
2.3685713 -5 4.9453468
-4.7130222 1.3628378 10
-3.1154258 -5 1.0352325
8 0.46456814 1.0461965
2.062428 -6.3002625 10
2.8213 -5.6468658 16.028048
5 -3.0974731 6.4573359
2.7449796 0.83806825 18.206841
0.67779016 -0.62368059 8
-8 -7.142252 7.6343336
3.9359913 -5 4.0595331
-0.21316671 8 2.7568614
6.7145138 2.8584111 10
-1.844142 -8 2.0891244
7.695538 8 0.3547883
5 -3.319927 5.6215124
8 3.2311792 1.3182844
-0.3846035 -5 4.3104072
4.2984467 -8 2.6525667
7.5533886 8 4.267025
5.7691684 -5.8899589 0
-5 -0.30994093 3.4015265
7.9077163 8 2.756557
2.2401156 3.7382774 15.015425
8 1.7576003 6.2227411
2.1861758 1.1948202 13.371215
-4.3969479 5 3.6650314
4.4963365 2.9930105 8
7.0604758 -8 0.8629629
-0.94731963 -2.3019345 11.648134
-5 3.8777552 6.0010796
-2.814589 6.5543356 16.007391
5 0.021201789 2.9857485
5 -3.2939632 4.7080345
-3.0440531 -7.1254835 0
-8 6.7706404 7.652246
-5.9252319 0.17019129 0
-7.9255991 -2.4527659 10
7.1049876 6.8014231 0
0.81151003 5.1604815 19.877729
2.1880541 1.1918046 14.110792
-5.2903776 -0.84899569 10
4.3471661 8 4.1180487
-4.9016614 2.3371768 8
2.1500282 -8 7.026577
-1.3800306 8 2.7285647
-2.0607514 -4.1831446 10
0.5228045 8 8.6908674
-4.9561357 8 3.9731159
-1.2271123 -5.7577639 0
-0.55644822 -3.6635404 14.055824
-8 5.0770636 4.2407255
4.6213441 -5 1.2520299
-8 -6.4635739 7.927474
-8 2.5921073 5.3959045
7.2314138 -8 2.8648758
0.52053761 4.5004616 8
4.7135057 -0.9046073 10
-4.8506179 1.6689039 8
3.5862079 3.0853949 10
8 -2.6879373 7.0416126
-5 1.5975447 7.45612
4.9479828 8 6.8649154
1.8148203 8 7.0500112
6.2185173 0.23447752 0
6.9971037 -8 4.6428003
-3.5932183 -2.6090083 10
5.8450942 8 3.6744432
-5 0.68753433 4.9699273
1.3973041 -2.065917 11.251141
-8 5.7096701 0.55786294
8 1.2453985 7.7046928
-2.6829991 5.6035872 0
-8 0.70783758 5.6489711
-6.3200459 6.7653003 10.000001
1.875798 8 0.57456911
-4.2376566 -5.6368718 0
-2.5319905 2.2883193 15.418406
6.6924028 -8 1.6870192
-3.8211293 6.0109491 0
-3.3903337 8 1.8028611
-5 -0.17450809 6.1482153
1.5726898 8 1.6889793
-5.2498527 -8 8.7008486
5.6483693 -8 0.98487931
0.71291542 -6.2817955 10
-0.46579242 -5 0.84594536
0.77852666 -3.6113005 10
-0.27381796 -3.5602913 9.999999
1.996179 -1.4978914 12.848696
-5.6093531 -1.0540712 0
-6.1427388 2.4493008 10
2.0509729 4.1764283 14.816827
-7.4782033 -5.1550765 10
-8 -5.4736857 9.3292446
1.59289 -5 6.7454939
1.2616296 -8 8.7630777
1.5607804 6.1924653 14.444377
2.9384863 0.45659137 16.414736
4.2934432 2.6701527 8
5 3.9995761 4.2054896
3.1230884 -8 7.4664588
-1.8977377 3.824316 14.682703
-0.5680418 -8 8.0231819
-0.92083931 -4.6654263 10
-1.9633676 -5.7893782 0
1.5404119 7 15.486572
6.0624013 8 3.8802981
0.61927819 8 7.5910959
3.5659847 -6.5156527 10
5.9261823 -6.9250436 0
5.9981623 7.8679085 10
4.6801052 -4.8670168 10
4.8616419 3.1068335 8
0.25400519 8 9.5589485
-3.1576986 -5 3.6004596
-8 3.6910305 7.9770379
-2.1450293 -4.2003918 10
-2.7633047 7.1639442 0
-2.5599761 0.023708463 8
-5.0143275 -3.5702605 10
1.1431673 -6.0711784 14.239914
-8 -3.638319 7.0181332
-1.5444684 -1.9524035 11.432539
-2.3226583 2.6391976 15.107291
-2.2125282 -5 3.734838
-8 6.7200122 6.9773436
-3.5469599 -2.8471584 8
-0.42058039 7.5296764 10
5 -1.4380574 1.2189622
-7.2719679 -0.55761194 0
1.5643673 -4.1095247 8
8 3.3279333 2.5267601
-2.9227247 3.2919416 16.340199
-4.542428 -6.2214737 10
-1.2859257 5.1091061 19.69339
-1.6710167 -8 1.6825198
-8 3.8891535 4.7130241
-1.4245894 -6.6362309 19.631651
-8 -0.55997062 1.5864813
5 2.7925601 7.5012374
-6.5527849 8 2.6825662
0.011239529 -7.0208082 10
-2.0210791 -1.4596124 12.845045
2.8236566 -7.3341937 0
-8 -5.3397694 6.1417937
-2.5748396 -7.4855275 10
-8 1.0612692 2.8680811
-1.1835093 -5 3.8059304
1.014663 -5 2.9657168
-2.5310717 -4.7360921 18.583187
-5 -2.6153016 2.3854318
1.0073242 -3.1948924 19.81743
8 0.74819326 9.6095161
1.7327263 8 1.2760323
-8 5.4574065 7.5550303
-2.2303925 3.497601 10
-7.1284389 -8 3.5118232
-0.59148657 -2.4180326 10.417477
5 -0.78577632 2.0380082
-1.3007565 8 8.4495621
-0.39185801 5.9736805 14.02932
7.8265204 -6.2710795 10
-2.9738564 -1.1790713 17.248741
1.6119469 6.1850166 19.516741
-3.7235551 0.2818194 10
5.0535388 -8 0.010608113
-1.9719608 -6.8049402 0
-2.8258886 2.1451511 10
8 3.2128086 2.6633403
-2.5543177 -8 2.5914571
-0.21478087 -3.4749985 19.983566
-8 0.036589265 9.5660248
-8 6.3716645 7.9509058
-4.6690884 8 6.7382383
5.2350392 -6.0680089 0
2.3311539 8 0.017930865
2.2060146 8 3.5189247
6.6675892 3.9282827 0
1.1308336 8 9.2325439
1.335225 5 1.4741725
-3.6122591 7.5560312 0
-2.5098276 -8 4.8345571
-0.26402426 -5 4.18718
-0.062666684 -2.4926944 11.715133
-6.6384721 -8 2.2403526
8 1.825942 3.7865877
1.0387331 6.5714483 19.803446
-7.6946259 3.3968444 0
5 1.4238232 0.51132911
8 -6.3298168 6.1391778
-2.9669418 6.3030128 10
2.3556418 -0.79115701 10.360518
0.74160981 -6.590807 14.105918
1.9896315 7 17.704287
5 2.6643996 4.230742
-5.055316 8 1.2778622
-2.1716108 0.10324609 8
4.957613 -2.720408 8
-3.4641695 -5 3.0564375
-2.2259102 -1.1189654 12.438051
2.198982 4.968976 19.016653
-3.4349308 -2.8980532 10
-1.984036 -4.817533 14.751277
-2.0349302 -5 0.37162161
4.2014813 -8 7.7612734
5 2.4465797 1.6979623
1.5519915 -5 0.64373827
3.9563601 -3.6705103 10
-8 -7.0581813 7.0974655
6.2093487 8 6.7605681
0.20510101 -3.9991574 19.983566
-8 -3.513905 3.1849337
-5.2595854 -8 9.4131708
-0.39373183 5 1.6179054
8 5.5958729 2.8013663
8 2.762804 1.6503178
-7.8274679 2.7350655 10
-0.83925772 -5 2.826355
-8 1.3607206 2.8440394
0.54294527 -8 4.4492559
0.58572054 6.9338894 0
-5.4697542 -2.2573276 10
0.71853614 -8 9.3640909
0.66395986 7 19.676472
5 3.9308298 2.7603619
-8 -2.8577747 1.1289035
-6.6245623 -5.3583794 10
-4.1080542 8 7.5729423
-3.7099595 2.1028006 10
-3.4250586 -5 7.9884639
7.2832079 2.5368028 10
-5 1.6363578 4.9348941
0.65106034 -8 7.7189775
-0.71537918 -2.393297 11.224759
8 -7.6037025 5.051096
2.1320257 5.9660006 10
-4.1457338 8 6.8590021
-5 -3.4570308 0.23179531
2.4047952 8 5.3906674
7.828114 0.1887227 0
5.8299088 -4.2091694 0
4.3478022 -8 8.3362722
1.7649213 -1.7503117 10.361633
0.069062032 6.3061099 14.014721
-1.0166007 -4.7294097 14.17999
-0.18509316 -4.3902984 14.009991
8 -3.4329634 5.4619207
5.7860212 -8 2.8219888
-5.9162874 -0.24861741 10
-8 -0.95460069 4.2248449
8 2.624754 3.3646727
1.8681667 -8 7.7252083
5.8054776 4.4932833 10
-2.4994571 -5.2570972 18.637943
1.8979728 -8 5.4595723
-5 -0.027194858 1.2389541
6.2785234 5.6140003 0
1.7986472 4.3907766 19.381096
-5.4370446 -8 7.9429407
5 3.0695639 6.514689
6.6793041 -8 3.2227564
-5 -0.62583506 3.6296077
2.9811335 -6.7604637 16.820498
-2.6219087 1.4445984 18.425852
-2.1042304 8 2.8982573
2.807653 5 1.1523732
-2.2167568 8 2.4536383
6.8809304 1.1091884 0
2.95157 -5.2874126 17.460777
0.16241691 2.4863725 12.043745
1.614025 8 3.9657712
8 7.3202052 9.5997372
-6.5562658 8 5.1520638
-3.4809442 8 1.5902257
4.5077133 8 8.5978289
-2.7201319 -5.4881601 10
0.093274914 6.6914272 19.983566
5 0.70593625 6.2703152
0.51424038 4.1052747 14.048471
5 -2.6393142 6.0557628
1.4838511 6.0851231 10
-2.959316 -0.8664251 17.387081
0.0072017312 -3.0647154 19.983566
6.4112253 8 2.4685478
4.6269841 -8 9.6181955
8 -1.5012438 9.9119673
-8 5.869637 0.17839453
-8 1.9413784 8.4826603
8 -6.3178687 3.1784616
8 -6.8600311 4.7585158
-0.81621563 5 6.1278472
-3.0896158 8 5.4244757
0.77863503 -2.5642843 8
-4.9450445 8 3.0883498
8 -6.9686041 1.542474
5 0.45823443 4.7999144
-1.1729102 -5 4.3743916
-2.1367731 1.3451688 14.896584
8 1.6511375 6.0650549
-1.9437963 -5 2.211669
1.9856515 -3.1393542 14.75323
-0.76889747 -2.5360022 10.000001
1.6442652 -1.8667431 10.932482
-5.8358927 -8 1.3736169
5.8681417 -5.2505674 10
0.088922501 8 6.0632629
-5 4.6218748 4.8043895
-2.6818273 6.4515357 18.322067
-1.7472104 6.7202787 19.418468
7.8817964 -1.1638315 0
-5.930047 -7.1562653 0
-0.00089604966 7 14.177083
-8 -1.9423647 1.0364943
-5.2230368 8 3.0729771
-7.8878956 8 7.0582714
2.8695595 4.8689299 10
-6.3464646 -7.5914536 0
-8 2.0565856 5.5561395
-8 3.6899862 8.5296717
2.4120629 -8 0.9889729
1.12104 -5 1.6310363
8 4.529192 3.3994317
-8 7.4938698 7.5539618
2.5137265 0.25926292 10
1.8911172 8 3.9284759
-8 7.8610129 7.6249495
0.32275125 -7 14.948469
-1.0407082 -6.5139279 19.802567
-5.210495 7.4755793 0
2.6063051 8 5.5253229
2.2443297 -8 5.6939216
0.4568105 2.4478288 14.042328
-8 4.0897493 3.9839139
-1.3359759 7 16.011993
-5 4.6234436 7.8059044
-4.4102345 -5.6696205 10
0.26340938 -2.6031508 10
6.1745424 -3.8332477 10
-8 5.7334604 3.9002371
0.50654429 2.4439087 10.911547
-2.6740556 8 1.6301286
5 -4.0494585 3.520649
5 -1.7302518 1.8117917
6.4637747 8 4.6516519
4.5320549 3.5252056 8
-1.2914811 4.7085347 8
8 2.120966 0.18636802
-2.5781517 -8 1.1717932
5 -3.9459386 5.5386777
-4.9746404 6.9681268 0
-3.9310303 8 5.7841415
-3.8927598 -4.3390179 10
7.0138216 8 9.4004717
0.89621115 -0.95142424 8
-1.2082253 -8 5.4558401
4.3271117 -5.3940582 10
-2.5941637 8 1.533792
2.4313459 8 1.0267347
4.1037779 2.0510204 10
4.1334529 8 0.087579489
-8 -0.19644284 6.0976944
8 3.9533625 0.59456247
-6.7350879 7.5592828 9.999999
1.2116776 -2.7256172 10
8 -6.7727947 9.7144365
-4.7553172 5 4.0077257
-4.0107718 -8 7.5081358
0.014890432 0.49681365 8
7.9989271 8 6.8759103
-2.3863497 8 9.8881874
-2.1351104 1.2934796 13.705048
-7.7419105 -6.6543159 0
6.29144 -5.153667 0
8 -0.56717515 8.1175175
0.77862453 -7 19.717577
5 3.4687169 0.18317313
-0.13940394 -5 0.34917498
1.4417543 8 0.75436652
2.4995933 -4.2514982 15.362291
2.6478214 -6.6141262 15.61903
-2.3115635 6.0586863 15.104456
-1.1844722 -8 7.2615309
-8 -7.4886985 0.5337618
-2.9508634 3.2325664 16.532497
-5 2.4280109 2.0884345
1.6625021 8 4.799788
-2.9856632 4.1573453 10
-0.63486433 -4.834537 14.076784
-6.825717 4.8712745 10
1.5260499 2.9713299 19.579151
2.9453938 0.22365856 17.519545
-0.13972223 3.4139934 10
-5 3.6561842 0.39598227
1.4974828 -2.9698603 10
2.6816247 -4.5732689 10
-6.6040745 -3.7888141 10
-8 5.508729 0.47804916
5 0.42330152 7.5166812
4.9936357 -5.7059498 10
4.9660931 -0.034160603 8
4.0892973 -0.45362926 10
2.2215474 -1.1432878 14.965206
8 4.9372883 7.6108909
-7.2639174 -3.9511151 0
-2.1513448 6.1671791 19.069559
-2.9950433 -1.1617076 16.952841
7.7241325 -2.5344028 10
-5.2197924 -6.0211883 0
1.4627643 -4.8513107 8
8 1.4744644 9.818264
-8 1.1292644 7.5930429
5.0160017 -5.7610803 10
-6.1442814 -2.3416882 10
4.7726197 7.5916286 10
4.6556759 0.083012015 8
-5.2427998 -8 0.84556466
0.27523586 -7 14.625979
-1.9698148 1.2769008 8
5 1.1158634 0.15665501
5 -1.3929515 7.7663894
-4.9410934 -5 7.3480077
-0.70141101 -5.1137815 0
6.9514871 -1.8872142 10
-5 3.5391815 6.5615468
-2.6881905 -0.9967019 8
-6.3040466 8 6.0120344
5.0966787 -4.8600264 10
-3.450485 -5 1.4874125
-0.38713598 6.4039631 10
6.667552 3.7114773 10
8 -2.6725724 4.2255802
-3.8066821 7.0933924 0
8 -6.8843522 3.9980931
4.5244079 -7.7828636 10
-8 0.27060574 9.872776
-0.89740312 5 4.8466496
6.4822173 8 1.835112
-2.5575905 -5.6131105 15.462745
2.5239921 0.45812607 8
-5.9526606 8 4.9946523
-0.94405997 5 4.3545475
0.89745045 -8 4.2218947
5 0.1151824 0.16460925
1.6314944 3.1923115 19.502541
-2.7097669 -5 1.7825837
-4.3444285 -4.0935221 10
8 5.4984035 0.21688013
-5 2.8940659 3.9988809
2.7109652 5.1529584 0
5 1.7698832 2.3992972
-7.854959 -8 8.4552507
-5.248455 -2.8583348 0
2.3333776 4.8309669 8
0.34991261 4.1710405 14.025943
-2.9882097 6.464479 16.887821
-2.9658918 -4.0200815 17.32452
-0.79117143 -4.544795 10
-5.0620704 2.5450354 10
-5 -0.84086496 0.80488873
2.2975295 0.96667635 13.475328
0.38719678 -4.036417 10
3.1329474 -7.95403 10
-0.95482457 -7 14.548519
-8 6.8543406 8.7498894
2.4992545 -0.009630193 10.668371
1.6041565 5 6.6211476
-6.5015383 8 0.33285916
2.4364781 -0.53207612 14.32531
8 6.7640314 0.95513898
1.5245442 -2.6434991 8
-5.3186769 8 4.3942943
8 7.5901022 4.1081705
2.0393414 6.7268195 0
-8 -2.4842148 3.2645071
1.4950963 4.0548167 8
-2.9629865 -5.5142031 16.647839
-1.5580533 -8 2.0279
-8 7.6652126 4.5845704
-2.8951478 8 1.5705937
0.63084733 -5.5664277 0
