# .PCD v0.7 - Point Cloud Data file format
VERSION 0.7
FIELDS x y z
SIZE 4 4 4
TYPE F F F
COUNT 1 1 1
WIDTH 2045
HEIGHT 1
VIEWPOINT 0 0 0 1 0 0 0
POINTS 2045
DATA ascii
-4.7617531 1.1269659 8
5 1.9155285 3.7853312
1.3530095 4 11.320579
-7.5391073 8 8.5614719
-3.8338411 -8 5.1668935
3.8113222 0.52076733 8
5 4.1344528 5.4238873
6.9267502 1.2234652 10
-2.6668801 5 2.3475778
0.33046627 -5 7.57131
-1.652226 -8 4.1950192
-8 -3.5713832 9.9508505
7.3430109 7.0891676 0
-4.9421892 -5 7.7987485
0.96783924 4 17.125759
-2.6361787 -8 3.4140434
8 -0.57020259 4.9233198
-0.99459314 -7.6095309 0
5 -2.3175011 0.52137864
-8 -7.6563549 9.511611
-3.4278533 4.6104879 8
0.50535017 1.5595919 18.869518
7.5275803 -3.2660694 10
0.24127102 8 4.1398611
7.997539 7.661325 10
8 -7.4501343 6.4251432
8 -7.5705609 2.0216546
-8 4.6109276 0.69187176
-5 4.6485472 3.0397546
8 -3.8320787 2.6658716
1.3960375 -4 19.643673
-5 -1.0067601 0.29992342
-4.7898607 0.72682977 8
2.888397 -5 2.3033714
4 -1.8911297 11.124144
1.9924523 -4 13.06036
3.0361111 4 10.776644
-4 -2.4370089 17.367764
1.6879556 3.9063809 8
7.2132106 8 6.1699986
3.6062334 -4 17.936493
-1.7711966 5 0.083489522
6.064496 8 3.4900606
5.0138893 6.1501493 10
8 -0.98710692 5.2647238
5 0.12664223 1.0842341
4.8097773 8 6.8923922
6.3179507 1.7359536 0
4 -3.1902697 11.278111
-5 -4.2887831 5.8344431
-4.7840142 5 6.4395247
-0.992226 1.7748219 8
-3.8248856 -2.8429821 8
7.6822052 -8 2.1782172
5 4.343688 6.1774683
4.4711351 8 3.4194493
2.1371818 -8 4.8230767
-5 -1.2812223 5.7308569
4.4854002 4.499527 10
-3.6910686 8 3.2137563
4 -0.22550654 13.439653
4 0.96547556 15.297342
-8 -0.61340046 0.31695968
2.8081591 1.0144405 20
-1.9674945 -0.16788238 19.797693
2.7059193 0.55935919 20
3.8584688 4.7555561 10
3.9997842 4 13.758976
0.14262766 2.7808571 20
2.6067338 -1.1725522 20
2.8147674 -2.8913193 8
-4 0.79760432 14.525286
-2.2312591 2.8214276 8
0.55267978 -1.6915953 19.11359
7.0184612 -8 3.22927
5 4.3558106 1.8915837
0.47092199 -1.6378793 8
5 2.7785411 7.8971181
5 -0.58833337 7.5338106
1.1686176 -4 15.38957
3.7628369 5 7.0603232
4 -2.8260453 13.073904
-5 1.5029359 5.1732035
-3.9590559 -8 6.4935284
-8 0.85887718 7.2974911
-1.0499086 -7.5602341 10
-0.047479153 4.3631225 8
2.1254847 8 6.6529531
-7.2665272 -8 0.24227634
8 1.1289036 8.3194466
0.22347724 3.2727914 20
3.2075784 -3.5282359 20
-0.2561447 -8 8.8633118
-2.8618863 -4 11.218642
-7.7447138 6.2638602 10
-0.010689497 -3.8020911 8
4.6758003 -5 4.4136553
0.81810403 5 5.8703728
3.0678885 1.7418394 8
-3.8041158 2.0734415 8
-5 -2.0782557 5.9981403
7.7143993 6.8656626 10
2.0797024 8 6.2282968
-5 3.0549355 1.1495061
-3.7370491 4 19.662546
-8 -4.7580757 9.4664764
-3.194967 -5 4.1647987
-2.1411321 5 0.27883127
-8 -0.90250719 7.339736
-1.0477493 5.8281088 10
-0.33959126 -4.3460679 8
-1.7564135 -8 0.93087685
7.8593464 8 1.0451281
7.2284269 -3.241395 10
1.4012058 -7.4231291 10
-4.8451929 -0.8185637 10
-4.8630533 -7.4836092 0
5 3.1398082 7.7145419
-5 -4.5792375 7.026618
-0.22190094 8 9.165143
-0.85422087 -8 4.7246895
-8 3.8779593 3.1328738
2.2298803 5 4.1039863
-4.1860456 5 7.6034822
4 -3.6757059 16.490122
4.7831454 8 4.4487338
1.515889 5 3.940223
4.0238914 -8 4.7343349
-1.5561016 3.0709927 8
6.7746768 -3.7784238 10
-4.1621337 -8 1.3803706
3.9383717 -8 9.0142488
-4 1.2767106 11.686521
-8 0.44637918 7.544641
-0.57805777 -4.2168422 8
6.5168219 -8 6.1460953
8 1.8579321 5.1645503
2.445559 5 3.6419137
-1.6534886 -7.0688586 10
1.9106069 -4 15.850012
-7.5791116 -5.3309307 10.000001
-8 -7.2475371 0.50681573
-4.2826867 -6.6877961 10
-8 -3.6314368 1.6297307
-4 -1.330795 15.474744
8 5.1644249 8.8668528
2.7968771 4 14.183403
8 -2.3386872 8.9047337
3.6721563 5 4.2158766
8 -6.2076931 9.8989697
5 3.8300176 3.7319698
-3.7181997 1.1181127 8
1.6910081 5 2.9408593
8 3.3764315 1.8892925
3.8410068 4 15.278692
-8 4.8362522 8.7358379
0.73977917 -3.0186915 20
-6.0543623 -5.8270693 10
-4.1586423 -3.1750402 8
-7.2793541 -8 5.744915
-8 -7.1208334 3.9468858
5 3.1506886 2.4900477
-3.1647434 -4 19.828077
-8 1.5611024 2.6753469
4.6249309 8 6.6099253
1.6067591 8 7.5441246
4.3275461 7.0532618 10
8 -1.7018864 8.7828131
-1.9195876 -0.13505127 19.510313
-4.4419622 5 4.7904744
5 -1.0965446 5.2028723
-0.13626766 -0.91187763 8
-6.3279762 8 2.1677828
-4.5665412 5.8935733 10
1.894857 4 16.181684
7.575542 -2.8061929 10
-2.4923406 4 11.294041
8 0.46456814 1.0461965
0.49243069 7.1444407 10
5 4.0334759 3.3296587
-5 4.9741974 1.5426642
-4.7758989 -5 3.5211039
-0.62368059 3.6985292 8
-8 -7.142252 7.6343336
0.059533119 4 16.138424
-3.5890217 8 7.8900909
-7.1820521 3.4424562 10
-1.844142 -8 2.0891244
7.695538 8 0.3547883
-5 3.7069635 2.3784876
8 3.2311792 1.3182844
-4 0.31040728 15.384604
4.2984467 -8 2.6525667
-1.17276 8 4.5461574
7.1100411 4.2190061 0
4 -0.24795258 14.251908
-3.589509 8 2.8142343
-3.069155 -5 5.9809103
-0.97819304 -4 19.875759
1.470189 -4 15.256199
1.0217627 -5 4.3349686
2.9930105 3.4966741 8
7.0604758 -8 0.8629629
-2.7045155 -4 16.078463
4 1.103284 11.122244
1.7596955 2.6469924 20
-4 0.016961336 13.732185
-5 2.5910802 3.291965
5.8745165 5.1455326 0
-8 6.7706404 7.652246
0.84928155 -5.2461414 0
5.4147587 0.028501272 10
3.3176694 7.9089308 0
5 -3.6860583 1.5067313
2.651058 -4 16.783173
0.14161432 8 2.1027243
-1.4111223 8 6.4010696
-3.2990272 3.2719195 20
2.1500282 -8 7.026577
-3.6342964 8 8.5910835
-6.4043674 6.8968925 10
0.5228045 8 8.6908674
-5.5707245 0.45615947 0
3.4157262 6.3591952 0
5 -4.7956147 2.0094154
-8 5.0770636 4.2407255
3.6970754 4 11.565037
-8 -6.4635739 7.927474
-8 2.5921073 5.3959045
7.2314138 -8 2.8648758
-3.8995068 -0.60544324 20
-6.9689369 -2.5917733 10
1.2769876 -3.9700799 20
-5.6198673 -3.5646193 10
8 -2.6879373 7.0416126
4 1.2780356 19.320148
4.9479828 8 6.8649154
1.8148203 8 7.0500112
8 -1.5012434 0.028601373
6.9971037 -8 4.6428003
6.2262383 4.5185976 10
5.8450942 8 3.6744432
4 -2.4800453 14.312466
-1.0261261 -4 10.806437
-8 5.7096701 0.55786294
-2.163754 -4 18.073683
7.9440231 -5.0234356 0
-8 0.70783758 5.6489711
6.1666112 8 1.0763317
1.875798 8 0.57456911
-1.0581152 5.4197645 0
2.6730971 1.3309618 20
6.6924028 -8 1.6870192
7.399642 -5.2098222 0
-5.1154222 8 8.9218197
4 -1.9913909 15.174508
-5.2976332 8 5.7060485
-5.2498527 -8 8.7008486
5.6483693 -8 0.98487931
3.067965 5.5652514 10
-3.1540546 4 16.523224
-5.3025007 7.8182716 10
-6.1834207 7.5740561 9.999999
0.73416936 -4 11.314486
-1.4687803 -6.0240622 0
7.31005 0.54376388 10
-2.7403092 -5 3.9870915
6.4866977 8 1.3223267
-8 -5.4736857 9.3292446
-4 2.7454941 13.407109
1.2616296 -8 8.7630777
4.9254889 -5 6.8004823
5 -0.32613683 0.49343291
2.6701527 3.3767104 8
-4 -0.59484935 11.000423
3.1230884 -8 7.4664588
-0.99104404 -5 6.4089503
-0.5680418 -8 8.0231819
-4.6827841 7.0034466 10
2.6050756 6.1478033 0
2.681994 1.3345454 8
6.0624013 8 3.8802981
0.61927819 8 7.5910959
4.204556 6.361948 10
6.0749564 0.28243354 0
6.2612567 -7.548409 10
0.26138955 8 0.94650865
4.8616419 3.1068335 8
-6.5476265 -6.1065741 0
1.8733817 4 11.842301
-8 3.6910305 7.9770379
-6.4365835 6.8694429 10
6.6611757 -2.2605357 0
-2.5599761 0.023708463 8
6.229075 -5.9717555 10
-3.0915475 5 3.540503
-8 -3.638319 7.0181332
4 1.409668 15.678686
-0.46608537 -5 0.65466833
-4 -0.26516199 17.212528
-8 6.7200122 6.9773436
-3.5469599 -2.8471584 8
0.83940411 -6.0688553 10
-5 0.085645199 6.7810378
2.9843874 -7.2719679 0
-4.1095247 -0.67389178 8
8 -3.9571838 5.4468017
-1.322505 -2.5033584 20
6.7075205 -5.7879391 10
3.6493614 5 5.0109143
-1.6710167 -8 1.6825198
-8 3.8891535 4.7130241
-3.423981 5 0.2078677
-8 -0.55997062 1.5864813
-4 1.7352854 12.207439
-5.8047695 2.9598787 0
4.2302942 5.6534786 10
4 -0.0046386719 19.014051
5.6658068 0.70424718 0
-8 -5.3397694 6.1417937
-0.85562515 5.5466242 10
-8 1.0612692 2.8680811
-4 -0.19406962 16.18351
-1.0342832 4 17.692482
-3.3829229 5 2.6537075
-1.6145682 4 15.366488
5 0.88101196 2.1743474
8 0.74819326 9.6095161
-5.9583483 8 5.1930785
-8 5.4574065 7.5550303
6.4482374 8 7.0231543
-7.1284389 -8 3.5118232
1.5474249 -4 18.973463
-4 -0.62862104 12.54751
-1.3007565 8 8.4495621
2.760746 5 6.141036
-2.6402259 -4.3691463 10
-0.84219384 5 4.8096685
4.9999995 -2.7936761 6.7006454
7.6770043 -5.3714347 10
5.0535388 -8 0.010608113
6.1950598 5.664155 0
7.7288995 -5.7814021 10
8 3.2128086 2.6633403
-2.5543177 -8 2.5914571
5 0.9067409 2.0142865
-8 0.036589265 9.5660248
-8 6.3716645 7.9509058
-4.6690884 8 6.7382383
6.9319911 3.8925669 0
2.3311539 8 0.017930865
2.2060146 8 3.5189247
1.7156024 7.1782079 0
1.1308336 8 9.2325439
-5 0.50749063 6.5258274
8 -1.6883967 1.4798942
-2.5098276 -8 4.8345571
-4 0.18717992 15.264025
-0.57787085 -4 12.207952
-6.6384721 -8 2.2403526
8 1.825942 3.7865877
5 -4.693892 6.4406004
-2.378931 -7.6946259 0
-5 2.0629845 7.4886708
8 -6.3298168 6.1391778
2.1864085 -4.6528568 10
-0.47001201 -4 13.691449
-1.5021195 5 0.71423191
-1.5470686 -3.3017261 8
-4 2.1315196 15.288427
-5.055316 8 1.2778622
-1.5674568 2.4901278 20
4.957613 -2.720408 8
-4 -0.94356263 18.464169
4 0.099117756 17.491789
5 -0.43462503 5.508285
-4.9154062 1.112395 10
-0.98963243 -5 0.25316
-1.6279444 4 10.464527
4.2014813 -8 7.7612734
-5 4.5690327 6.3020377
1.2415931 4 10.804672
2.7155278 8 0.98863721
-8 -7.0581813 7.0974655
2.8169088 8 7.8797255
5 2.8565412 1.3837937
-8 -3.513905 3.1849337
-5.2595854 -8 9.4131708
-5 0.39373183 2.0671091
8 5.5958729 2.8013663
8 -5.3594913 4.9235654
7.4996271 8 6.5587225
-0.67140603 4 13.532944
-8 1.3607206 2.8440394
0.54294527 -8 4.4492559
7.476037 0.043572843 0
6.3862162 -4.1795139 10
0.71853614 -8 9.3640909
2.9314375 -4.7467856 8
-4 3.1446638 13.450453
-8 -2.8577747 1.1289035
5.1771216 -4.4576488 10
-4.1080542 8 7.5729423
5.4238062 -1.8150578 10
-2.7285111 4 11.574941
-6.8948526 4.8096385 10
4 -1.7560198 13.363642
0.65106034 -8 7.7189775
-3.5690653 -4 17.545107
8 -7.6037025 5.051096
-0.056031942 -7.2855034 10
-4.1457338 8 6.8590021
4 -2.7656248 10.289743
2.4047952 8 5.3906674
8 7.0832748 4.4165239
8 -3.5738201 1.7534004
4.3478022 -8 8.3362722
-0.92863739 -4 13.033497
3.4602027 5 3.9146779
-4.7490063 -5 4.1737041
5 -1.5913413 0.64016289
8 -3.4329634 5.4619207
5.7860212 -8 2.8219888
6.7206426 -1.8812079 10
-8 -0.95460069 4.2248449
8 2.624754 3.3646727
1.8681667 -8 7.7252083
6.1679707 -6.3253126 10
3.9359543 5 0.99594426
1.8979728 -8 5.4595723
4 -0.021755815 11.548693
-0.98185182 7.800643 0
5 0.88592541 4.7822447
-5.4370446 -8 7.9429407
-4 2.455651 18.14336
6.6793041 -8 3.2227564
4 -0.50066793 14.53701
5 4.8289032 5.6977081
4.8179936 5 4.8254848
-3.3627882 8 9.2134018
-5 -2.807653 5.093749
-4.0741787 8 8.8391113
8 2.0316296 1.2759441
-1.1641246 -5 2.0900793
2.0506213 -4 12.460684
-1.6547661 8 7.9570055
-3.6797903 -4 19.975391
-6.5562658 8 5.1520638
-5.4556389 8 8.7658157
4.5077133 8 8.5978289
0.77307886 4.4238567 10
5 -4.7795911 2.8102136
-4 0.56474906 17.837894
-4.9865584 5 5.0663481
-5 4.9303894 1.9442374
5.6878214 2.9046869 10
-1.2058681 5 7.5304055
5 -2.9257467 2.248734
6.4112253 8 2.4685478
4.6269841 -8 9.6181955
8 -1.5012438 9.9119673
-8 5.869637 0.17839453
-8 1.9413784 8.4826603
8 -6.3178687 3.1784616
8 -6.8600311 4.7585158
-5 -1.5239753 1.8721528
-3.0896158 8 5.4244757
0.77863503 -2.5642843 8
-5.572804 1.3388457 0
8 -6.9686041 1.542474
-4 0.36658776 15.999893
-4 0.37439156 16.172911
-1.790802 -5 7.9205642
8 1.6511375 6.0650549
-1.555037 4 12.764585
2.0505559 -5 3.6818123
4.7478223 4.5734305 10.000001
1.7136555 -4 15.064529
-5.8358927 -8 1.3736169
-1.9388967 8 2.6384258
-6.8189793 5.2066803 0
4 0.50188923 10.378125
3.1246266 5 6.8131094
4.8001995 5 3.8977439
8 7.3695812 5.4072599
-3.8817854 5.8437352 0
4.7307787 -0.28350803 8
-8 -1.9423647 1.0364943
-5.2230368 8 3.0729771
-7.1174812 -4.0636482 0
-1.4742937 -7.8757582 10
5.2566633 5.3734961 0
-8 2.0565856 5.5561395
-8 3.6899862 8.5296717
2.4120629 -8 0.9889729
0.89683187 4 12.038795
8 -2.5609093 5.5686865
-8 7.4938698 7.5539618
-2.3240585 -8 9.9315777
-1.7144384 8 7.7465277
-8 7.8610129 7.6249495
-0.30315754 -0.24697565 18.039045
3.3634732 5.0000005 0.27775544
8 -2.9380057 1.7480688
2.6063051 8 5.5253229
2.2443297 -8 5.6939216
3.9981384 -4 16.166685
-8 4.0897493 3.9839139
2.6728477 -1.9780849 8
4 3.5046594 10.376556
-5.495316 5.7595868 10
0.91198653 4.0877714 10
-0.211133 -4.3778853 10
-8 5.7334604 3.9002371
-1.7959344 -4 10.513677
-5.3917942 8 8.3014135
-4 -3.2395668 14.400811
-4 -1.3842013 12.26474
-0.55735683 8 5.6117926
3.5252056 3.9931507 8
2.323575 -3.2572086 20
8 2.120966 0.18636802
-8 2.5781517 7.7831383
-4 -3.1567509 16.923347
6.405652 -4.4121656 0
-5.7629318 -1.5470736 0
-6.4746342 4.1136665 10
7.0138216 8 9.4004717
-0.95142424 3.1523647 8
-1.2082253 -8 5.4558401
3.7813547 6.1133757 10
-2.5941637 8 1.533792
-6.3572245 8 4.5071435
-7.929563 -3.4049015 10
4.1334529 8 0.087579489
-8 -0.19644284 6.0976944
8 3.9533625 0.59456247
-3.8432751 -4.4792757 9.999999
-0.0077012181 4.2544556 10
-3.7715497 -4 11.052566
0.23502588 -5 3.9922743
-4.0107718 -8 7.5081358
0.014890432 0.49681365 8
7.9989271 8 6.8759103
-2.3863497 8 9.8881874
4 1.5383615 15.531887
7.5146146 -7.7419105 0
8 -1.1123202 3.5936918
-2.4940138 -4 16.527998
-0.72210026 -0.47158197 18.204811
-4 2.7749739 10.228966
-0.11152333 4 10.436468
-6.7930136 8 4.8532701
0.72346258 -5 6.4294276
-2.3158236 -5 7.779501
1.3760242 -5 6.3810911
-1.1844722 -8 7.2615309
-8 -7.4886985 0.5337618
2.3089762 5 5.9961748
4 1.9424086 12.610543
-0.3203392 8 8.7607241
-2.4925218 8 0.30335903
5 -2.199656 1.9777768
4.5943704 8 7.0188975
5 -2.1223783 7.5892754
1.8302002 -5 1.3363552
-6.3457441 -7.661705 10
-3.6040177 4 19.151163
0.65018559 4.4235215 10
5.509747 0.28186846 10
5.5772095 -3.316802 10
-8 5.508729 0.47804916
-4 -0.14467767 14.576698
5.0585604 6.3626432 10
-0.034160603 -0.00025390461 8
3.0818517 -4.464519 10
3.968534 -4 11.0009
8 4.9372883 7.6108909
6.4047256 -7.2639174 0
4.405128 5 2.7441883
-4.2439308 5 5.2686882
-5.4667149 4.6641917 10
-0.55422354 5.2404189 0
-4.8513107 -1.3140752 8
8 1.4744644 9.818264
-8 1.1292644 7.5930429
5.6309099 6.3943367 10
6.1117234 -3.0467429 10
4.8456302 -7.3442359 10
4.6556759 0.083012015 8
-5.2427998 -8 0.84556466
-1.7316172 -0.98591459 19.960144
-3.2510152 0.16711986 20
-5 1.3116826 7.8433452
-4 -1.3479717 16.39295
-3.3008823 4 10.058907
1.1153529 6.3237114 0
-5.9094739 2.8592548 10
4 2.8313451 18.201935
-2.7936289 -0.11845678 20
-5.3179913 -1.3300254 0
-0.27415752 8 1.0928851
3.7521996 4 11.549516
-1.1583946 -6.4936848 10
-7.4123964 3.5361829 10
8 -2.6725724 4.2255802
6.5228653 -3.236155 0
8 -6.8843522 3.9980931
5.0031166 7.2114334 10
-8 0.27060574 9.872776
3.0442848 -5 3.1533504
-5.0638208 8 2.7837262
3.801873 -0.27350092 20
0.45812607 2.934134 8
-6.4983954 0.55429149 0
-5 -3.6127558 3.6454525
0.89745045 -8 4.2218947
-4 0.092146158 10.205761
5 -2.2802224 5.9267402
-2.1678133 4 12.22823
-5.582325 -2.5197885 10
8 -7.6529918 1.7803779
4 -1.6858664 12.105934
7.2674017 -6.451623 0
-5 4.7690048 5.6007028
-7.854959 -8 8.4552507
5.9578705 -7.2829638 0
-3.9659953 -1.9306602 20
-2.3281167 5 4.9869285
-3.2014773 5 1.7448304
-2.8714869 5 3.8377268
-4.8023052 7.080492 10
7.7399631 -1.3006282 10
-3.1951113 4 15.165245
1.5605259 -4 14.267182
5.1196094 -2.3885188 10
4.2671037 6.8002439 10
-1.1522657 -1.6280041 19.977909
-8 6.8543406 8.7498894
-2.9306066 -4 10.250242
-5 -3.3277221 1.3788524
-6.5015383 8 0.33285916
2.920495 -4 13.230857
8 6.7640314 0.95513898
-2.6434991 0.83195657 8
-5.3186769 8 4.3942943
8 7.5901022 4.1081705
8 7.5564575 4.2439356
-8 -2.4842148 3.2645071
0.7161423 -2.6990757 20
-3.9387169 5 4.5168128
-1.5580533 -8 2.0279
-8 7.6652126 4.5845704
-5.4870501 8 8.3800611
2.4820671 7.4335728 0
-8 -6.265717 1.1699939
3.1091428 -7.7352529 0
5 3.2389579 7.8786302
-4.6672368 4.9073339 10
1.4380869 -4 16.257498
-4 0.67819607 13.048893
8 -3.507997 3.3726616
6.1804194 -5.5801663 10
5.9714093 5.0061135 10
-8 6.5584235 7.4148526
7.6689034 -5.6603498 10
-7.3338971 3.5104527 10
-8 -1.9544348 9.9286175
-1.7955768 5 3.9486279
-4 -1.5110234 19.132339
-8 -3.4394383 0.27604252
1.8905442 4 17.156565
0.97377062 -4.1261082 8
8 4.2816973 0.85135609
-5 2.9334836 6.7461424
4 0.31164414 10.496821
8 -4.2390299 9.1374416
-3.8032577 1.9630444 8
3.5768595 8 9.892045
-1.5388422 4 11.290529
-0.69135082 -2.8443329 20
1.7612534 -1.1271915 8
-3.5796447 5 5.2621541
-5 4.6723804 3.1505311
5 -4.9779129 6.5616245
-0.44577694 4 19.47645
-3.07479 -4.3527355 10
2.2381151 3.3211524 8
3.2538023 4 16.476189
4 -3.8332431 11.033394
4.0472775 5.5061998 0
2.8402867 -5 1.3442416
-5.8872242 2.1301746 10
1.5325778 -0.7230559 18.96233
1.2016504 8 7.0434027
-6.6433802 8 6.458025
7.4625816 4.5593061 10
7.6047606 6.2738709 10
8 5.2970428 3.149066
-5 0.69832134 4.2752099
-5 2.9212172 1.0547585
-1.699219 -4 17.273462
5 -1.955683 6.8425822
8 -1.0483698 5.8701801
-6.6284304 -8 2.7942801
-1.959757 6.9428687 0
-8 -0.015476704 8.4203777
8 1.6971706 6.1288147
-5 -2.9767992 2.620883
-5.4410505 -8 4.2718153
-7.480422 8 3.9945555
4.6793108 5.1937914 10
5 -1.4496088 1.5983086
-8 -1.2761366 3.2342634
8 -1.1927042 4.5003185
5.4977684 1.1096829 10
1.0954106 -5 2.6682458
-7.6494761 8 5.816618
3.508198 3.3006027 8
5.0408468 -3.9650259 10
-1.1758561 5 3.5697577
7.0313263 -1.6517611 10
-5.9803715 5.4920621 10
5 3.6362257 4.5222263
-5.078186 -4.518959 10
4 -3.7382948 16.777594
8 6.9531918 5.0999646
-8 -4.0979843 4.8545713
0.35024917 4 16.470043
3.4654107 4 13.060983
-0.65395439 5 4.9345765
-8 4.5718627 5.9736838
3.83307 4 10.805769
4 2.5573082 14.608536
-6.8071594 8 2.6641083
-8 -4.5607843 6.908206
-7.2203894 -7.1191387 10
-4 -3.1880631 11.400113
-4.2645221 -6.7438884 10
6.8837023 2.0587454 0
-1.8375316 -4 15.303869
5 -4.1680694 3.7983704
-3.8616753 -4 10.055012
4 2.1176085 17.448051
-0.34398672 -0.099592775 8
-7.9999118 -8 1.698948
8 -0.71116447 4.4407921
-3.7227578 4 10.666459
-8 -3.2384388 3.9826717
-4 -1.3711734 17.820492
0.98893547 -5 6.1478529
7.1221333 8 9.2526531
7.297102 -3.752984 0
-2.7042401 7.6139092 0
6.5449066 -8 2.7695169
4 -2.8141685 14.630618
4 -0.64419973 11.325833
4 1.0666156 16.298088
-1.4847898 4 17.080025
-7.0005727 5.7850151 0
8 -2.525533 3.5494051
-1.6203268 3.1627514 8
-4 3.5826511 18.478376
-2.6473904 -6.9540424 0
-4 0.95380378 15.170197
-0.75430554 -0.22755724 8
-1.5994306 -5.9786687 10
-4 3.1422319 13.638773
5.5369215 -8 7.238071
-4 1.9251944 13.946047
2.3783216 5 4.5116053
-3.4147062 -6.6946402 10
2.6139202 -4 13.886513
8 -1.6861192 5.5190182
-1.0601249 4 18.327492
-2.8689485 5 4.6453853
7.2255673 2.7389026 0
-5 -3.5438991 4.0231881
8 1.5913486 0.37983245
2.2899551 4 18.330729
4.5798264 -4.0568385 8
4.8474979 8 6.3073606
-3.7329218 5 6.727386
-6.9588823 3.6800563 10
-3.0934603 4 10.759573
4.0678515 -6.1670489 0
-8 6.8853564 3.8596115
-7.6298881 -6.6040058 10
8 2.4548101 2.9636867
-2.9810183 -4 12.543653
-5 -4.1135144 6.299242
1.4072882 4 14.143036
-7.4998608 1.8204899 10
-8 -3.0191188 6.5275679
4 -1.5992509 17.991663
3.5209649 -4 16.398342
2.8815472 5 4.0860085
-4 -2.2559438 16.276899
0.51469588 -5 6.8688021
-3.2641225 5.4029298 10
-5 0.72439539 2.2370443
-5.4991078 -0.97605562 10
-5 1.2644477 4.8331113
1.899676 0.029129263 19.410988
8 -4.1582918 2.1230977
-2.9345794 -5 4.0252829
-4.2657228 5 5.6469455
-4.7195177 -0.42053914 10
-7.1571856 7.6223807 0
3.170599 -8 2.344038
4.8164248 5 1.6483098
2.9611006 4 15.202749
-4.8145723 -5 5.3550491
5.9541082 -8 9.7819824
1.5375357 0.45177007 8
5 -1.1951374 0.78173959
3.5214338 -7.0399599 10
3.5816598 -8 2.6752203
-5 3.563839 4.7932901
8 4.1309047 8.3300028
-3.8747082 -8 1.1104709
-7.7487555 -1.2975631 10
8 -0.86257911 0.28212181
7.8038507 -8 5.9719167
5.6743507 3.5928524 10
-1.4685252 -7.5778103 0
-5.9634228 3.8204632 10
8 3.6942005 0.63809294
1.7555807 0.57867801 19.269329
8 1.7450924 7.0895538
-7.3238087 8 4.2979698
3.0491576 -7.73844 10
-4.0132971 8 2.4787068
-6.4311314 1.5232303 0
6.5020437 -7.1592474 0
5 0.04627943 0.46544039
8 -4.4571352 5.07548
-5.4856734 8 0.017982721
5.2718511 -5.3430591 0
-3.2844691 -7.7714581 10
-3.4929461 5 7.4357786
3.7302604 8 7.1730728
2.8688512 -8 3.0850639
5.2096 -8 7.0600996
8 -1.3170202 0.49130863
-4.3302851 2.5018477 10
-8 3.1437888 7.3779969
-5.2193475 -4.6670351 0
-0.037020445 -7.8600321 10
-3.1306553 8 6.1689816
-1.1310229 7.2242484 10
2.7847054 -8 5.0316167
-8 4.9983377 7.0165138
-0.70618105 -4 19.446629
-5 -0.54555738 3.1753626
-0.59858978 5 1.414946
4.1713924 8 2.1358128
7.2973413 7.7371492 10
-7.1775007 2.718559 10
-3.0245495 -8 0.69375455
1.1807724 -4 19.145563
-4.8001432 5 7.7376995
7.0903511 -6.918025 10
-8 -0.27335489 7.2892928
4 -3.8886375 14.687843
1.7894335 8 8.3269186
5.9804668 -8 5.4722257
5.3981915 7.0292692 0
4 3.537271 14.594827
-8 6.7150393 0.0011940203
-1.5592611 -3.7538896 20
-2.1912985 -7.3879852 10
-5.4294076 2.0379186 10
3.9099131 1.385639 8
4 -1.0628202 13.50757
-3.1005726 4 17.480801
-4.1211882 -4.8248434 10
-5.769474 -6.5319452 0
4 3.7492948 17.653389
-8 4.3099642 7.4750309
-8 -1.9451056 3.1848264
2.4550281 5 0.525976
-0.38727045 4 17.39542
-0.76047492 -6.9401693 0
-1.6191907 4 10.513868
2.1985953 5.015028 10
3.8479497 -0.064689636 8
2.4238682 -8 0.94517171
-8 4.0604572 6.4900217
-5 1.2213407 0.69902802
8 0.41756195 5.9560566
-0.73293442 5 2.2799191
-0.93725586 4 19.806866
-6.6877174 -5.7399244 10
8 2.811595 0.93001676
2.6024001 4.649488 10
-5 -1.1135639 1.4869642
-0.36472344 -4.4364328 10
0.89633489 -1.2361888 18.727604
-4 -2.1673746 15.148077
-4.2652054 -7.315341 0
4.6851273 -4.1323438 8
-2.1679726 4 14.535918
4 3.0469093 11.793735
5 -2.240253 1.9976263
2.1916766 0.56197977 8
0.19281483 4 14.649315
-4.4233308 -8 7.0540981
5 1.3236067 5.6316981
7.7672358 8 5.3257751
4 2.3149581 12.954231
4.6500821 -5 1.8388429
-4 2.6150219 14.80723
4.1529894 0.34725147 8
-8 1.1467726 8.2596321
2.6350923 -4 16.444269
-0.83847523 -5 5.6441965
-4 3.9619157 17.034473
-7.1291518 2.6882257 0
5 0.59206045 1.851503
-1.7488043 5 3.8842502
-0.19459102 0.34165946 18.039665
-8 -3.4370031 1.3072052
-2.647083 4 11.627291
-1.3816047 -8 2.8284631
3.0386758 -5 3.3698649
-0.45414752 -1.9340633 19.953072
8 6.634016 1.5968987
8 -0.57874322 2.3054075
-2.3262358 -2.6528535 8
-4 -1.0303291 19.792685
-8 -1.7193329 3.6920021
4.0441194 4.0732007 8
-2.4323545 -8 1.6919264
-8 -0.28345668 8.7771692
-5 1.6097786 2.0213199
7.6958456 -8 7.2661991
3.0908937 -5 6.2282805
1.7521884 4.4353409 8
7.143424 2.5887201 0
3.6218653 -4 13.918967
1.5327511 -1.4217618 20
7.6643648 8 6.2327681
-0.67076659 -7.6092892 0
-6.8745737 2.3812203 10
-5 -2.2814775 5.9534392
4 -1.9678943 15.869282
-3.7855692 4 16.729904
8 -4.9771791 2.4119797
0.65829211 -4 11.707642
-5 4.5738153 7.2546597
5 -4.0043898 6.556334
3.4174166 2.0570421 20
2.4167991 -1.1658664 8
-4 2.6144853 18.620941
-5.5660725 4.1498933 10
2.6839972 7.9413652 10
-3.6676269 5 0.064746335
8 -0.47466063 9.4123755
-5 4.3364067 2.287941
2.9736357 7.6436577 0
-2.8531876 8 9.9767561
6.8239632 1.4688153 0
-4 -0.7705338 11.749855
-7.6938672 6.1405072 10
0.84971553 -1.7863436 19.814556
4.7264967 5 5.3273206
-1.8531439 -1.5380501 20
3.6047573 5 7.5213718
-2.5123434 -5 1.7164922
-8 6.3129125 1.3894454
1.8931637 -8 6.3657045
0.92270947 -8 9.2684555
-0.80281997 8 2.4959481
-8 4.7199211 6.6114783
7.5744815 -7.4263105 0
-6.7724414 0.97069311 0
5.3810592 -0.40944707 0
-1.2781396 -7.2586198 10
5.8536711 8 5.8202209
1.6480331 7.3319302 10
5 3.7115331 4.814146
0.31229293 5 2.0646832
-5.9183736 7.2364011 10
0.059219923 0.77501529 18.159365
-5 -1.1603615 3.5783467
-5 3.2718191 3.3040261
3.1495752 -7.7297583 10
-8 0.52490425 1.0328687
-5 2.9576139 3.8986967
-8 0.31035197 9.473525
-4.4408131 5.6660819 0
-2.5805583 -6.2729554 10
2.4094775 5 5.3095932
-8 -6.0285101 9.1891527
-8 1.0505573 3.4067974
-5 0.88315487 3.8761692
-8 -1.2761323 1.6950808
-2.7252059 -5 5.2293081
-1.6458206 -0.77298069 19.197559
-2.0756207 8 4.2215877
-3.2854123 5 7.3215213
2.4607611 -5 6.7900214
-1.6311855 4.1294737 10
8 -7.7959905 8.8554392
2.6932864 4 17.66955
7.3327312 -8 8.4550238
-4.9928856 -6.5899782 10
7.366807 2.6660018 0
-8 2.243027 4.247683
-4.3154526 3.3404751 10
7.1665306 -6.0183907 10
-8 2.9944286 8.1803598
8 7.3085842 7.4276562
-5 1.6515927 6.8958054
5 -2.2753921 0.39432803
8 -3.4166584 8.3458824
1.6730436 -4 13.638481
-7.7498612 -6.2534165 10
6.1290178 -7.1048937 0
-4.0717907 3.300817 8
-2.1386094 5 4.6559811
3.0783997 4 13.511065
8 7.2442656 0.88582003
6.5014029 -3.4039478 10
-8 -0.82160711 7.0218391
3.1307485 3.6764007 20
0.61446393 -4 17.920757
0.20424224 1.0413307 18.311666
-8 -7.7473998 4.8033233
-5 -0.80023527 4.9825521
-7.2651963 -5.8950844 0
-3.8270578 5 6.7841229
-8 -2.2483094 4.6719294
-1.4764993 -8 7.0265288
-4 1.4727795 10.653472
-3.0436831 8 9.6516113
-4.2681637 2.4641924 10
5.4032264 -4.1201367 0
4 -1.7698793 18.979952
-3.2425642 4 18.284088
-5 -0.43689823 7.5271039
-4.5324192 0.87302864 10
-8 -2.5209742 4.2388639
5 0.88493061 4.7135553
7.105298 5.560606 10
-1.386307 -8 6.2597599
3.5675359 -8 4.8243318
3.4394665 4 18.169798
-8 -2.0988364 8.0083847
-4 -2.8097184 13.823042
8 -6.7727094 9.1964102
-6.6321063 -4.778851 0
0.028140068 -3.859781 8
4.6879606 -5 5.9263453
6.5033464 -8 4.5536542
-2.0693789 1.235744 8
6.3581762 8 2.6199241
3.3555188 4 15.330883
-8 6.3833423 4.4184203
8 -6.8111439 0.071284175
4.1246452 -5 2.1936116
5.4258132 -4.7599797 10
-0.51440591 5 3.1771331
-2.6403365 4 17.082565
-5 3.3869927 0.93591261
2.2597461 -2.3233359 20
8 -5.3546448 1.558588
4 -2.9354396 11.718996
-3.5264311 -5 4.2853088
4 -2.2361748 15.216732
-4 -3.1809814 10.012728
5 4.5028372 4.2412095
-6.8185043 -8 3.8069675
-5 3.8432589 4.4273281
-5.7964458 -0.46905243 0
-2.9388361 8 3.2206564
-5 4.7855577 0.45130739
-4 2.2932429 17.660093
5 -2.2045703 2.7500851
7.304009 8 9.3577356
-5 0.820548 1.2321744
-5 2.4016147 7.8169494
-2.7338347 4 12.542413
7.0135989 -5.8972411 0
0.17630005 1.005536 8
1.3513217 -7.8347268 10
4.1638851 -2.4384608 10
6.2864585 -2.6881814 10
1.0178063 1.0107177 18.618885
-3.630373 5.8327646 0
1.7275383 -8 3.1352477
0.064146519 -5 4.4598951
-2.6845658 -5 0.42881441
-0.61355627 5 4.7581058
4.4266005 -5 3.5687099
-1.607162 -5.9085345 10
5.1256661 -8 6.9829741
-2.9335217 -4.5978904 8
-5.5721827 7.8586507 0
7.9658723 -3.0278611 10
1.9975618 -8 3.9761624
0.29095805 4 13.640989
-5 -2.3445444 4.5997186
1.9148053 -4 10.057259
5 -2.3581793 5.2938037
-4.4931593 2.6922562 8
1.5110426 -7.2603464 10
-4.6189742 7.1726727 0
2.7588353 4.8445005 10
8 7.1021566 1.3923944
8 7.995739 7.4449048
3.1464672 1.9321637 8
-4 0.47838789 16.567368
7.3295665 8 8.9541988
4.187706 8 0.76387465
1.5892005 -4 15.923511
-5.4998698 -7.7647424 0
-0.38158265 -0.43195915 18.095558
4 -1.6277015 11.603951
6.2821584 8 5.6016884
2.5017836 7.4020486 0
-4.2948565 -2.6510344 10
-1.0791655 8 6.2464743
1.7678332 4 12.015703
-8 -4.8726172 9.6513596
7.9860082 8 2.8529215
3.7676027 4 10.460343
-6.122262 -1.5457305 10
0.78922057 3.5548332 8
2.3159189 8 0.96537352
8 -7.4906378 5.2523532
0.38677311 -5 2.6829739
3.8865242 4 11.191612
-8 4.3246155 4.3341527
-3.3618803 8 7.053586
3.3024952 -4 18.220814
3.9668643 -4 16.933308
4 2.6331105 19.22011
2.5943465 -8 4.4912658
4.2637572 8 0.49005628
-4 1.3777694 16.58444
-5 -0.71289396 4.3665614
7.8241973 -3.6037114 0
8 7.2185993 1.5174543
2.4542236 -8 1.755479
-4 0.25791878 19.182112
-1.4404784 -5 7.8817153
3.6986661 -4.9999995 7.6507363
-4 -3.2336264 12.416924
0.32281661 -8 6.4080153
-7.6401787 4.485198 0
-3.4117548 5 7.3901687
5 3.4345317 4.3835545
-1.3372445 -4 18.73634
-4 2.6909487 11.016201
-7.3932505 -1.571636 0
4.0791397 5 4.1886497
5 -4.2886086 2.8488655
8 -3.7627754 3.2038255
3.7889745 -5 6.5980082
1.4420371 -3.6574843 8
4 0.39254999 18.050552
-1.3088061 5.0597053 0
-4.147212 -8 8.2587976
-5 -1.3178066 2.992394
-2.9987659 4 12.736564
-5.6198249 -2.039984 0
8 0.027388573 8.1568813
-4 0.92701662 13.722021
3.7511368 -1.9722786 8
3.5238764 4 11.376839
8 1.3725586 2.1703014
0.9432112 -8 4.3688483
-8 -5.180584 9.553503
-5 -0.27031344 1.4339938
-1.1386614 8 6.2395468
8 5.1252489 9.7557735
-8 -4.4623933 5.0054712
-4.7672768 -5 3.4524965
7.0554414 7.3711686 0
-8 3.6155186 7.8277521
-4.7150574 -8 2.8146675
8 -7.7111597 5.8140187
-8 7.6342897 4.7443657
6.9966087 -7.5551043 10
-0.76850891 -5 3.1621699
-2.0685833 -8 3.134593
-6.3968043 -8 0.80319542
8 4.1943827 8.8817329
-4.1706328 1.4665799 8
-3.1922126 -8 5.2044654
-8 -2.7935898 6.4838891
-7.5162582 8 7.0182023
-7.8228588 -6.9324274 0
1.4085569 8 9.8030624
4.7613411 1.6582847 8
2.0082412 3.8847084 20
3.4426692 -4 13.467574
8 5.4909153 7.8511229
-5.0625248 8 2.827606
-6.1820946 -5.3639793 10
4 3.473762 18.250599
2.4751587 -8 1.131519
-2.6742215 -5 6.256691
-5 4.6006794 7.1225748
-4 2.7872217 19.392515
-8 6.8030009 8.176878
0.39762378 -5.7597914 10
-7.4392033 -4.5650668 0
4.2611866 8 4.996913
0.18535542 7.4616041 0
5 3.3639958 1.5321256
0.97433269 4 17.564114
-5.0884094 -4.5534263 0
-3.4393568 -8 1.1005003
1.3085538 1.1742189 19.076811
5 2.1961088 4.9337974
-5 2.1305614 1.8248935
5 2.9348247 1.5659583
-0.32636261 4 14.875599
1.3851266 -8 4.3969278
-6.9296064 0.71316612 0
8 -3.2949095 8.5141268
-1.976711 5 6.1426568
5 -0.96297282 6.6896129
-4 1.7226249 18.334629
3.2670002 7.9153733 0
-0.45865464 -0.044077963 18.06039
3.7334876 1.7771075 20
-4 2.3119822 10.82209
-5 0.89621878 0.55358124
0.42722178 7.6245131 10
1.6160353 -5 0.9667263
-5.3034782 5.6340013 0
-8 4.3756166 4.6771431
1.2964799 8 7.3536549
1.8864522 -0.55079615 19.693291
-8 -2.2608614 1.3692106
2.3050854 4 12.808733
6.1814575 2.1322756 10
-4.3194637 -4.306819 10
5 0.85468626 3.9800649
-8 7.8653784 1.3113183
-5.9747019 -3.2385972 0
-3.2944784 8 3.4822216
-8 -2.8854182 2.2946463
6.0980568 -7.6481066 0
1.0138398 8 0.8222425
8 3.3544006 7.046092
3.0270171 -5 0.94332838
5 -2.6301208 7.8309288
-5 3.7848797 4.2613568
-1.2770953 3.1408117 20
5 -1.2069004 0.18253063
7.1708431 -0.70534873 0
8 -4.7777281 4.5356941
4.1664257 -5 0.14846468
-0.11258936 4 19.625992
2.0648837 -8 4.9001718
5.6061382 -8 5.6652083
-1.302928 8 5.1572456
-3.8588018 -4 12.885893
-8 3.4205871 7.1142788
8 4.8818307 8.8478966
6.6250429 -1.4113283 0
-4.6175189 5 7.2289033
-7.0263729 -8 7.6930342
0.567307 7.6392169 10
-4.1761913 -0.96580338 10
4 1.4992347 16.145588
5 2.9957547 7.2012396
0.57040238 1.8099916 19.413795
-0.65497994 -3.8186593 20
-3.6258235 4 17.168093
8 1.640254 9.9778194
1.6038687 3.1629615 20
2.339421 5 3.1312072
-0.31339425 -5 1.3782783
4.3017139 4.2981944 8
-2.1813161 -2.31866 20
-0.70569992 8 6.0997491
2.4524302 -8 1.8528149
-0.43001747 -0.64286089 8
5 4.5876684 7.3659797
8 -4.9126616 5.9169331
8 -3.1011512 7.8301706
1.937988 8 6.2775397
-5 1.7913673 0.26727915
6.0279164 -6.7630591 0
3.8375282 -5.4147243 0
3.6646717 5 2.0731685
-4.8480425 -8 5.2265711
-0.027647018 -5 7.3240118
5 -2.9803352 0.7613644
-2.9165792 -5 1.9278455
5.9751368 -8 2.7529953
-4 -1.3829978 13.86386
-5 0.1126008 5.516376
4.7900853 6.693109 0
0.054589704 -1.9888555 19.922672
-8 -3.1929655 2.584152
-7.6413646 5.3694143 0
-8 4.9495401 7.4252415
5 2.4998767 0.78743637
8 -2.0848498 6.4580431
-1.8870916 -4 18.056986
3.9129672 5 3.9272122
3.2698355 8 8.3523607
-4 -3.4341383 16.4891
-8 -1.7884378 1.0669349
3.1656709 -8 7.4734187
3.002394 -5.3917499 0
4.6751299 4.9470482 8
-5 1.4206505 0.91763496
4 -2.9061856 14.515028
-6.493577 -8 9.269186
5 -1.3506233 6.8465834
0.92626774 -1.5729314 19.204384
-3.7569058 5.7001739 0
8 -2.5154362 4.3938112
-4 3.5138941 19.793758
-5 0.36003411 3.1208792
-3.9994376 5 4.5794454
-3.9003263 5 2.2497206
4 2.1522083 11.547359
-2.1336164 5 1.7144508
-5 -0.86868834 1.408576
-8 2.2748284 4.658505
2.4413469 8 7.7565012
4.7473192 3.6389914 10
4 -3.3866076 14.08143
-2.7043269 -4 13.249022
5.4884863 5.51126 0
-3.6720467 4.5710411 10
0.54674625 5 2.1582069
2.015835 -5 3.0604787
8 -6.9966793 6.7602925
-8 -2.361383 4.1923642
4 1.9186468 19.71373
3.8440781 -1.661818 8
-7.72645 -8 6.2963634
-7.2784252 7.6945248 10
-5 -4.5448632 3.070168
4 2.3800721 19.71801
8 -2.6077726 6.2901745
0.79029512 -8 0.75039536
4 3.2457743 11.00404
3.3016801 -5 0.55623007
4 1.5240445 18.134752
1.2764311 -4 13.244235
-5.2380028 4.1251841 10
-5.9017382 -8 9.180686
0.11084962 4.8770847 10
1.6699271 8 5.4677143
2.9569898 8 1.5764153
-5 0.94916081 0.68332767
4 -1.4827315 13.316644
4 -2.7397449 15.319713
-4.1216087 -5 6.6382084
8 -5.3948026 5.2538462
-8 2.3524909 7.7664299
3.7912743 -2.1512938 8
5 3.9654865 1.1583065
-8 -3.4003608 5.8559427
0.25872564 -2.7294312 20
7.6298156 8 3.7379889
-4.4348044 4.4706616 8
5.7128072 0.097610712 0
-5 -1.4221107 2.6469665
-3.4782438 -4 10.585695
5 4.1137986 1.5554644
1.4667348 4 10.013232
-6.436059 8 4.0274539
4 1.0744388 10.685165
3.5729673 -8 6.1447544
4.5375819 8 6.9200325
4.5674057 8 9.3876867
5 0.57510149 5.4728398
8 -1.9004357 9.0524063
-8 3.2615519 8.9358959
-8 5.7907538 6.5304861
-3.2414842 -4 15.351374
-0.026239872 5 2.2925484
4.0240111 -6.0210009 10
-0.80610311 5 4.7842784
-6.7103977 -1.2375007 10
3.6242981 3.6185744 20
4 2.7146921 10.752213
1.2594355 0.41962516 8
-1.3469756 -5 2.5558629
-1.5648881 -4 16.895216
-7.4634337 -7.1860695 0
0.63243353 -4.1934452 10
5 -2.5598295 0.78760886
6.4068384 8 9.0741444
0.30762303 4 18.805367
-8 6.6903439 2.6274083
8 5.7549143 5.3100815
-5.467627 2.8935499 0
8 -2.7234726 6.3196039
5.6642776 -5.4801526 0
-8 7.7887545 6.4753098
-2.1233346 5 0.7358948
-3.2476358 8 2.9907441
-8 -6.5273867 0.11803534
5.4537106 -8 5.4546976
5 -2.4663439 3.8549678
4 -3.8957269 18.441965
5.4213657 1.315132 10
-1.4434922 4.1196671 10
-4 -2.3209064 14.219423
0.033780575 4 13.550932
-0.21444368 4 16.921822
8 3.3410397 9.2978306
8 1.7408323 8.0333204
8 -4.4786539 3.4782066
-1.2132825 -5 1.7309752
1.7328339 -8 0.87641841
-7.3664246 -0.98797417 10
-1.5996948 -1.0947839 19.555029
6.8912272 -1.2782311 10
4 -1.6687156 19.967712
-6.1217933 2.4833527 0
-0.074848175 -5 7.485755
-4 -0.28843105 14.246408
8 1.2532825 1.6364453
-4 -1.6723684 10.333973
8 -7.0472288 5.89925
1.8861156 8 3.5227656
-0.37261522 -4 16.440098
-5 3.325331 6.1176915
0.9261775 8 4.4894361
0.98247623 8 1.7357808
-2.8288805 -4 16.913557
-0.18249726 5.5415382 0
-4.2965355 -2.318625 8
5.611516 5.5278573 10
3.321645 -8 9.2868433
2.2414999 6.8670359 10
5 -4.3770375 6.389648
-5.4247971 -8 6.8625116
4.3920007 4.9999995 6.5498352
2.4645548 4 17.448072
-7.2735386 -2.4506783 10
-2.6665568 -3.6300645 8
-3.3292146 -4 10.888647
8 -0.091650009 2.0413685
8 1.833765 1.6930035
-5 2.9874086 4.5556788
-5.9039297 -0.33048844 0
8 4.7427349 5.3618402
-1.7274652 -6.4388194 10
4.6870432 8 5.9553666
-8 -6.7032638 6.0009155
6.0960846 0.50759816 10
-4 -2.116631 19.526306
-5 1.1841207 5.2379603
-5.2980151 -8 9.3534737
-0.17796183 6.9322548 0
-4.4578547 5 7.9738741
1.7487569 -8 2.8304563
4.3594894 -5 1.4037147
-4.8014007 -5.0034041 10
-5 -3.514739 7.5263586
-0.1767385 5 0.23516242
-8 5.5879221 9.9469681
-4.9159937 7.1894245 10
-4 -2.7299252 19.463638
8 -1.4082754 8.3695393
-0.23882174 -3.6189487 8
-2.947226 -1.8339652 20
8 -3.0272958 2.6222651
0.32443213 -4 11.017849
5 4.6609325 1.7027845
7.4621329 6.1262627 0
-7.7221518 8 1.4452469
0.78320694 -7.7487316 10
7.8647327 -4.2134809 0
0.73891377 -4 16.521534
6.2838173 -0.35483551 10
-1.4083332 1.3808899 19.781815
-4.2578411 -8 8.9948921
1.1291533 1.5418522 19.454105
5 0.99140429 3.5642445
-2.2748947 4 12.242264
-4.8904867 -5 7.8142157
1.9289123 -3.2874808 20
-3.0495758 -5 2.2444506
-2.2743881 -4 14.604462
-1.6143847 4 19.492817
1.9495707 0.27874851 8
4 2.3863964 12.412178
-4.753212 8 5.4778309
2.0132031 -7.2560468 0
8 -2.7077792 0.81492287
8 -4.5781012 2.6162038
8 6.6078787 3.8307078
-4 -1.9009736 17.910439
3.8173997 -5 4.6156373
-3.2124774 8 0.92330575
-5.290184 7.0949459 10
8 2.0402975 5.5994272
8 -0.73566067 5.9354954
-1.2316631 -4.9233503 8
4 2.4192734 12.690567
5 -1.0583504 0.013169914
-8 2.6658545 8.0373659
8 1.1870852 2.6134188
-2.9875643 -4 13.458849
5 -1.9582788 2.8799324
4 2.6468463 13.727917
2.289813 5 1.2254947
-5 -1.7836144 1.2161078
1.0672539 8 1.6881591
6.1899414 1.1374466 10
1.9470079 8 7.4343915
0.5461998 8 9.8500843
-6.3685446 -5.1118994 10
-0.16869783 4 16.962862
7.8101873 2.8329093 10
-5 3.513072 4.9256792
2.6966419 -2.9106586 8
4 0.74875546 16.7211
0.076506361 0.71687812 18.139631
8 -1.4119215 4.592627
1.6366707 4 14.866008
-8 5.3940363 6.2182913
3.9293413 -0.56169724 8
-0.50021744 5.9589958 10
-4 3.2382045 18.395754
8 -1.5587267 7.4402103
5.9192982 -8 5.084054
5 4.3655758 1.1432136
6.297368 7.9122677 10
1.6522939 -6.0490208 0
5 -3.3412027 2.2905474
-6.2554216 -6.334239 0
3.7401271 -6.3358808 10
-4 -2.8660855 15.206856
8 -2.4186306 3.2053013
-5.0263262 8 4.7288699
3.6750641 -2.9194946 8
-4.6630764 -2.7073953 10
-5 4.1473122 6.4860544
-1.656255 3.4334209 8
-8 5.8737688 1.460094
2.6281981 -7.4297023 0
-5.5000939 -4.6790743 0
-1.3085304 -8 6.3393145
-6.4825482 -0.46634114 0
6.9968767 8 4.9763298
0.14487362 4 19.409042
-2.3091021 -5.8669958 0
-7.5508032 3.0417566 10
1.4682118 -1.264116 19.55031
4.5199404 8 6.3979788
5 -1.6315092 5.8537397
-2.3707778 -4 19.610733
8 -3.1513937 0.57567412
-1.8845645 -5.0000005 2.8988047
-4.9366341 6.8514557 10
-6.0361476 -3.1452901 0
-3.1078417 4.4239531 10
-4 -3.8019168 11.664869
-0.26673216 1.374602 18.577293
8 -4.7795057 6.2639651
2.3239038 -8 0.45856276
-4.9187961 -7.3528953 10
-8 7.3305035 3.8094084
-6.5159116 -3.3779745 10
6.3308048 1.8144305 10
4 2.3392997 16.659939
0.75424433 -8 9.4456158
2.3100779 -8 4.2199359
-2.9213314 6.506011 10
8 -2.3297997 2.8770216
5 4.8607945 4.0232038
-4 -0.19326091 12.12586
8 1.6741385 9.0961056
3.6337645 5.3745389 0
-4.7726021 -5 0.88433528
-2.8990884 -0.34286499 8
8 0.23233616 6.709877
2.2113647 3.0290966 8
-5.1994205 -5.7909455 0
-4.5587673 5 6.1221647
-4 -0.15836895 16.459116
2.0381176 4 16.335316
-5.0042992 8 3.1096931
6.8139782 4.8347673 10
-8 3.917521 9.4352474
1.6411929 -8 9.1789598
0.77349806 5 4.8880043
8 1.1193991 5.1194897
-4 -3.9834454 18.545023
8 -0.56811595 6.7461281
8 1.134511 0.030010968
3.9813652 4 19.833088
-1.6773348 8 8.7912331
8 4.4071302 6.8864551
-2.3114433 8 1.7196113
-1.2109038 -8 3.515866
8 5.872714 8.619792
8 -5.4292359 6.5702009
4.1747108 -5.1558161 0
-4.1458979 -6.4403896 0
-8 -7.7914696 0.025480703
-8 -4.8630891 0.023007475
2.0510607 -8 9.9503965
-4.7915821 -1.7372372 8
5 0.89760011 2.4780493
4 -0.033344798 10.380928
5.5182972 4.1919069 10
-5.3583922 -6.182281 10
-1.7237355 -4 15.591227
4 2.8257704 19.954014
7.910202 -5.5938034 10
6.7053719 -4.4699297 10
6.5443239 -5.6244907 10
-3.3177505 4 11.733727
4 1.9429984 11.795373
7.636631 -0.22180581 10
-2.235323 -5 3.4598498
-8 -6.3990002 8.6789675
2.1187305 -4 13.143915
-8 -5.629046 9.5052414
-8 -1.9495885 4.2617764
-8 3.9463787 4.2659988
0.43675652 4 11.363487
6.3656063 -0.46121979 10
-7.5828843 7.5244536 0
6.500402 0.76189947 10
3.947475 -8 0.49323875
4.3163252 8 6.0994425
-4.2307348 5.7073178 0
-2.1449134 5 1.4671458
-8 7.6617227 9.1340981
-1.9223025 3.1578593 20
8 -5.7402229 3.8028312
-8 0.64950752 9.2609568
-3.9647322 -5.8739681 0
-4.9421234 6.0613327 0
-5 2.8508205 1.6807837
2.860882 -4 18.326046
-6.7935743 -8 6.2655945
-8 -2.3781998 5.1229901
1.9976377 5 1.8930125
5 -2.8752511 1.8895247
4.7362194 -2.5164611 10
8 6.2927399 8.1314373
-8 -6.9611988 4.5454688
-2.4042029 4 17.244099
-0.40788877 -4 16.233564
2.0748837 -4 19.865643
-4 2.8381886 13.850881
0.7118876 -4 10.532381
3.7111759 7.8054829 10
5 -0.99260509 7.6686621
7.1676812 8 5.5395555
-5.0440187 8 9.3038006
-5.1105008 7.5902829 10
1.2674651 -7.5672307 0
-8 -5.6840701 9.609334
-3.005477 8 3.9740834
-1.6072283 -4 14.109777
-6.3167348 -0.75419056 10
-8 -7.3205347 0.74992299
0.62065315 4.3642807 10
4 -2.1021166 16.532232
-5 1.8335557 4.4397182
-2.8069086 4 12.02569
3.485801 -5 5.1852093
8 -5.602922 7.2630281
-4 3.0064464 17.17367
2.1686769 -5 7.9904361
-8 -1.8629284 5.1825409
0.50938308 -4 11.487676
-2.7402599 -8 7.6787429
4 -1.4518611 15.398114
5.5178347 8 0.2504307
-2.2169404 4 19.091463
-4 -3.9661057 16.109856
4.4553099 -8 9.5663052
8 4.4184723 5.4398069
-2.2902384 8 8.5917187
7.4402838 8 2.9496522
-8 -6.3612766 2.6130698
0.46383762 -5 7.9331713
-5.7974501 2.9816227 0
-8 -7.1534977 3.6766315
4.4431734 -0.8764925 10
6.5581732 -8 6.2332716
7.4621539 -8 7.7734942
3.8782606 8 5.9990382
-8 -2.5492029 0.40221033
-4.024581 -5 4.7841444
5 0.84156859 2.8297474
4.6760817 -0.83244157 10
4.0386319 -7.6284919 10
-5.1150322 -5.9151983 0
-1.9366629 -4 16.183546
6.9608059 8 2.932291
3.4899645 5.5932922 0
8 7.4619532 8.7904797
1.7938722 -8 5.8424978
2.8058822 -8 8.5862656
-4 -3.4335883 16.90155
-6.4250774 8 8.0487356
-7.6156807 -8 1.6786028
5 -1.5754256 5.2878032
4 -0.91587335 10.052643
2.0250931 -5.8462305 10
1.0832552 8 1.5344781
-8 -4.9421911 4.299211
0.44867516 -1.673979 8
-2.9272499 8 4.0365362
1.5350668 -4 11.283915
0.95778674 4 12.668527
7.533339 -1.4110048 0
-3.6275277 8 2.6127994
1.5693822 8 5.870419
-4 0.37466037 16.150276
-2.453799 -4 10.166099
5.7535896 -8 7.1227813
8 -1.8842149 5.5405817
-0.86348546 1.8509132 20
-8 -6.5131359 7.8418927
-5 -1.5333916 3.7724819
5.8480945 -3.4914517 10
5 4.8478742 1.4284977
-0.84678125 -5 3.7217448
4.0801487 -5 6.4126773
-8 -6.2118945 7.8991766
-8 6.2161975 7.3658462
-6.8713484 3.2430096 10
0.5278368 4 18.255754
3.1570606 -4 13.891481
-4 3.6704354 10.811448
-0.57626915 8 5.8160381
-5 -1.6101433 5.9696631
-3.6994119 4 16.084538
-5 3.4313316 5.5214329
-7.1063228 -3.2551217 10
-6.1874809 8 9.7848186
-7.0711446 -5.0407963 10
-5 -1.6353428 1.6383939
0.59637642 8 8.4622021
-1.5080487 -4 19.562376
-8 0.0042643547 5.202631
4.3131976 -4.2816043 9.999999
8 -7.965023 2.0453892
1.1325142 -8 1.7225268
-5 -1.4947013 2.0622354
-8 -3.1382689 2.4273775
-2.1603165 -2.8335388 8
-6.136477 -7.522944 10
0.55087328 4 16.048752
-5.833549 8 1.3360733
3.987272 1.5732822 8
-2.8659866 4.2319536 8
-8 6.7594872 7.0480261
-8 -2.1006794 2.2488694
-5 1.9754934 6.9595618
1.2627137 -5.1811686 10
8 3.1126194 5.3874502
-4 0.090603948 13.270668
0.25239134 -4 11.202251
0.45458269 4 11.889244
1.7276405 4 11.978788
-0.37443304 -3.1355124 20
-7.8420649 -4.0646458 10
-2.0313818 -8 1.7331861
-1.8682232 8 5.4976397
-5.1253881 -8 7.6981764
4.3731303 5 1.5125442
-3.0255232 4 19.577602
-0.74040937 7.2952981 10
-8 -6.5266671 0.9629277
4 2.5384755 16.72817
1.2481606 3.5324748 8
-7.4791012 -3.9395337 0
1.5863781 6.74821 0
0.57152271 -7.6604567 10
8 2.1798878 2.6580808
0.7004838 7.0018811 10
8 -4.1505542 2.8729141
6.1943531 -3.6518383 0
-5 -2.2443717 4.3868074
-4 -2.0150573 16.440048
-4.0371614 8 1.3866597
8 -2.3150117 2.3476727
1.5178664 8 2.5101333
-5 1.8551544 0.9384737
3.249599 -4 14.232181
-1.3388175 -0.83065516 18.790234
8 -5.4265976 0.57765228
-5 1.9393849 5.3222294
2.394763 8 5.1453791
-0.30707461 -0.033743203 8
1.4012029 -6.5006628 10
-8 -2.6331329 8.6974792
-5 -2.660728 6.0231023
-2.4540873 8 0.99762201
-8 1.8585443 6.2044363
3.1609478 5.5431728 10
-4 0.61355293 19.223383
-8 -7.7254119 7.5930395
2.0363126 -4 17.049234
5.0031919 8 0.83460331
5 3.7350554 1.8758231
-8 -6.6854982 3.7862074
8 7.1152458 2.6267745
-2.3332815 -6.8318548 0
4.2192168 -8 2.6282067
-1.5972228 -8 1.0528646
0.46167135 4 18.679272
-5.4533806 -1.4789863 10
-7.3404284 -4.5843654 10
8 -2.3357573 0.075078227
3.4091551 4 10.306069
7.5913372 -8 0.90798599
-3.0041122 8 3.8927495
4 -1.7910726 10.623817
-4 -3.5432088 10.479383
-5.4151211 -0.36572075 10
-8 -2.7638953 2.082864
-5 4.7849197 4.0048046
-8 3.6182268 1.2773809
-6.599649 -0.43177676 10
0.71430564 -6.6715307 10
3.9024169 8 3.5435896
8 4.1372046 8.8631697
4 -0.29337049 13.812351
-3.5328827 2.534266 20
8 0.42600346 4.7178288
8 0.93658924 3.7537827
-5 -2.8095186 7.3507781
4.22644 -7.7917542 10
8 -4.6400709 7.0299845
-1.3860998 1.3950082 19.731548
-5.6920009 3.9990425 0
0.35158801 -5 3.7825122
-3.5978074 4 13.015814
-5.2825232 0.53290844 0
-4.8978896 -8 5.3166494
-8 5.4340601 8.8634434
-4 1.7689342 10.034226
-5.8926792 8 1.813816
-1.9806231 -8 5.4861646
-3.0827956 -4 15.398416
-3.2421598 6.1945448 10
-7.6663575 -1.1097496 0
4.4185133 7.1959009 10
8 -1.964052 6.961997
-3.7212677 5 6.2602177
8 0.067547679 6.9383078
8 1.7743149 0.89895004
7.5441208 -6.2019763 0
8 -5.0088634 2.6176775
5 1.7689335 5.1032996
4 -2.968375 11.863888
-6.7345142 -8 1.9467885
-8 5.1194777 3.6363723
-5 4.0435848 1.7250673
-1.9601979 8 1.6444737
5.0279427 -8 2.7659132
-5 1.3747952 1.4191966
-3.1423001 5 2.9378223
-3.0638075 -5 3.8073595
-0.66131103 0.64941615 18.240137
8 -3.0124891 1.3060395
-0.14100885 4 17.188663
4.8917875 5.9210505 10
3.5722079 3.9136157 20
-8 -5.6660309 5.433527
1.8698206 -5 2.8071737
-7.7382131 2.195503 10
-2.4488187 -3.1982512 8
8 6.8517723 8.7626295
-4.2748203 -5 3.7254765
-1.7258273 -4 15.935637
1.8080529 -0.37820742 19.238901
-0.42681384 7.9117837 0
-7.8960972 1.9037802 10
-5 -3.3646493 4.3668079
-8 4.5078306 7.8030667
8 -1.3708169 9.7867956
3.9487584 4 16.032734
2.8684592 -4.0382133 8
0.73860055 3.0296519 20
-7.9982309 8 0.90408289
4.0736475 5 7.2091317
-1.2598677 4 15.663498
-4 -0.82122254 13.960207
0.5453434 -5 2.9599924
0.58700848 -8 1.9459237
-0.21982589 2.2537735 20
4.5926332 5 6.0142136
-2.4502482 5 6.1911297
-5 -4.2726798 2.2659101
8 6.772891 0.93486601
3.4001319 -4 17.69005
-4 1.6977401 16.0096
-8 4.4265771 0.39586407
8 0.037511051 5.8475761
-7.7200613 -7.9221983 10
-4.3522267 -3.7822089 8
5 1.1723254 6.949688
3.7374105 5 5.3709865
-2.3499057 -4 16.289215
-3.5592895 4 15.507252
-5 -3.3582442 2.4546685
5 -2.5981636 1.2916811
1.1630173 8 8.5776138
8 -1.1620629 5.8790197
-8 -0.51644516 9.6638956
-8 -1.3393756 3.4759641
3.3352737 2.2692451 8
8 1.2593942 8.2134533
-4 1.6425264 13.506697
-6.0746098 8 1.6652812
-1.6133 5 5.8015018
1.2717018 -8 1.8514758
-4 1.9892676 11.050948
-6.5256624 -4.4695067 0
-2.3392994 5 4.3934937
-6.9172735 3.3349781 0
-5 -4.5652595 3.5193682
-1.7943711 5 7.3529
-1.8467875 4 18.349705
-4.4633493 -5 4.5780683
4.3467145 5 6.5495372
-5.1471848 0.17112029 0
-8 -5.8542566 7.9061804
-3.8597698 -4.3285694 8
8 2.8788657 7.2597809
-8 -7.5274696 5.3947473
-5.6145754 7.7648063 0
8 -4.7149196 2.4229228
-4.9381313 -8 7.5740833
-2.7998695 1.0392023 8
8 -0.19463372 2.0702868
0.26076078 -4 17.933388
-8 7.3741369 8.0651751
-4.109509 -2.6953597 10
0.69565129 -4 10.58055
6.5750895 8 4.692667
-5.6166964 8 3.3029528
-5 -0.055371523 4.6000562
-3.1565456 0.39413226 8
-4 -0.35959363 16.013123
-6.7964735 8 3.8198528
-5 1.2490731 2.7984152
-8 -0.89689827 6.5652776
-8 -0.066689968 2.7616856
-8 4.9804516 2.562124
-1.0621238 5 0.80578661
-8 0.61394942 9.2536154
-1.6786208 5.4801278 10
1.8930407 -6.3615828 0
3.6264911 -8 1.7935963
2.3970068 -5.0787954 10
8 -0.45334744 9.367631
8 1.7003851 1.89647
-7.2052646 -8 6.3463259
8 -6.7816443 4.3999228
2.7237298 -8 2.0258121
0.74365377 -1.9888965 8
8 -7.2996225 2.76001
-7.9161777 8 5.7866449
4 -1.9861424 16.778391
0.59683967 -6.4694986 10
-0.43539929 4 10.772612
-3.8500361 -4 15.934965
2.2997808 5 3.6596739
2.5478816 -5 7.5603194
0.83145332 3.9515123 20
8 -5.7452025 7.7879629
-8 7.7186508 8.0533609
-8 -4.5517936 2.2259555
-2.5195179 4 12.437108
6.7368126 3.1319957 0
-5 2.4827213 3.4216242
2.4784346 8 8.5761728
6.1420674 8 0.044693947
2.7472014 4 11.14109
7.5067925 1.2684073 0
8 -4.3481421 7.4751129
-2.6435287 -2.2894423 20
-0.58759415 5 4.420846
5 3.4260716 1.0461533
-3.083328 1.048829 20
6.3716021 8 6.6964107
8 -3.424428 6.165072
2.1828136 -8 5.0570588
1.1624515 5.3639889 10
5.2792253 -3.2175825 0
-5 -4.160121 2.9242325
3.0129154 5.7892075 10
-6.7025938 -5.3077874 0
4 -2.4660769 19.280857
8 7.6642275 9.7497644
5.5135746 -5.9451461 10
8 -0.061000466 5.9924293
1.674317 2.0175529 8
1.2648833 8 8.9187193
-1.7216885 -4 17.737112
8 1.6492996 0.20789187
4 2.215157 14.872084
4.976984 -0.28064761 8
-2.1384888 4 16.652531
7.5822263 4.9202294 10
7.5679951 0.35295415 10
-6.9221592 -1.3712978 0
-1.0996685 -3.1937268 20
6.9169836 5.4000115 10
2.98139 0.59515536 8
4 -1.444788 18.9226
-2.6903319 4 13.863687
3.1783526 1.0384934 8
8 -0.35355258 9.1593885
-8 3.0171161 7.6661081
4 3.399271 12.167548
-7.8901935 0.83202457 0
-1.07307 -3.5706928 8
8 1.9795322 4.4242511
-7.1607242 0.8252418 10
8 7.8136787 4.4315381
2.7471452 -8 7.8815308
3.2092988 5.428091 0
-4 1.6286211 13.416645
8 -2.9548736 8.7744169
-0.4343788 6.4662991 0
1.331013 -4 10.81435
8 -2.1387882 9.8394241
0.37956095 -8 8.0206718
5 1.5469537 2.0978413
-6.3953838 3.5232644 10
-1.6356864 4 15.153607
-4.6000481 -5 7.3665056
4 -3.786252 12.198701
-5 -4.1364727 4.9430838
8 4.2022457 0.11391417
-8 -6.7635489 4.1278811
