# .PCD v0.7 - Point Cloud Data file format
VERSION 0.7
FIELDS x y z
SIZE 4 4 4
TYPE F F F
COUNT 1 1 1
WIDTH 2041
HEIGHT 1
VIEWPOINT 0 0 0 1 0 0 0
POINTS 2041
DATA ascii
-3.7201719 -6.3895388 0
-2.5802078 5 4.9332576
5 -1.6561259 10.652324
-5 1.7203261 13.904552
-0.58997154 -0.8963728 19
-4.1958251 -1.6237946 17
7 -1.1699209 15.083803
5 -0.36369562 7.4295301
-7.0165 -8 7.0242357
-5 -0.90330374 16.186296
-0.83113718 -7.7100816 0
-6.5263066 -7 16.131424
-8 -3.1061876 8.8573446
3.8411198 -1.6523893 19
-7 1.7523952 18.457947
-5 -3.8873632 6.5204687
5.7914982 3.7323985 0
-4.3823199 3.4659052 19
5.7929344 -0.52319121 0
4.6603165 -4.7478666 19
7 -3.1577368 13.824407
5 -1.7334037 0.063196987
-3.3960805 -5 4.9805794
0.85117471 -8 2.0642812
8 -4.6003828 8.3784418
4.4977283 -5 9.0253839
2.5264544 5 9.1670685
-0.26216555 7.9654269 10
5 -3.7649701 9.3788996
-0.023406982 5 4.2347193
-7.1823955 -8 3.0936136
6.1263251 -5.6653042 0
5.7830496 2.6891274 0
5.7405152 -7 10.93267
-4.4454107 8 2.2874908
5.6692562 -7.3541794 0
-3.3371444 -5 10.442037
8 4.2817178 8.5142612
-7.2952185 6.6235075 10
3.5703487 7 15.616735
-8 -0.37953287 9.7148876
5 4.8960457 3.2400081
4.8242064 -5 16.29833
8 -3.5696614 3.820467
-0.49712753 8 9.5457516
1.4240392 -8 1.6387261
-5.6844964 -7 15.361268
3.0174539 5 4.7932487
-1.8443284 -5 13.912548
3.5887067 5 13.647063
-7 4.4454365 11.865297
4.4800892 -5 8.9480476
-5.6566353 4.9690027 0
2.4032426 5 0.42762989
8 -5.7991891 3.9470081
-6.3617229 -8 2.1139796
5 3.9528937 15.353894
-5 -4.7207479 10.767001
7 1.0848205 18.068691
8 -1.9823229 5.6771016
2.6835349 -7 15.460154
-1.3129026 7 17.531982
-6.6394849 1.5459011 0
-5 -2.1310248 5.7851791
-4.9775395 -6.437212 0
2.9641056 -5 16.613731
-7 4.8134518 14.937536
-7 5.8373041 15.794303
-1.6455294 -7 10.88485
8 6.6476326 7.8547616
7.6098175 5.1160922 0
8 3.5731897 5.7789774
2.218652 5 12.311287
8 4.6803255 2.2198458
-1.8847812 7 17.540663
-7 3.7912314 11.246252
1.2230245 3.9130883 17
-8 4.6249428 2.7196362
5 -4.4693813 0.18552412
0.20619881 8 2.2977531
-3.0555916 5 10.225954
2.2688153 -8 1.0311311
-2.4912505 5 8.9026861
-7 6.6213312 13.429706
-2.2074635 3.6231823 19
0.5069555 -7 13.093918
8 1.5456815 9.5163145
3.3611028 -7 11.251788
4.9522648 5 0.5039736
-5 -0.034899235 14.250088
0.10819244 -7 13.08709
-6.0196867 3.0003219 0
5.1508036 -7 16.709066
-5 1.5769589 8.4119701
5.6253452 3.9063377 0
8 -6.3286762 0.13486676
-4.4697328 3.5325065 19
4.1586781 7 15.083298
7.8619208 1.5307465 0
5 4.3430309 3.9353149
4.6879129 -4.0722151 19
-8 4.3365641 5.7793727
-0.31470019 -2.954747 19.768961
-1.5367448 -5 4.5489454
-1.1116686 -8 1.7791115
7 -2.8850963 15.577301
-3.1795683 3.6069589 19
6.02213 -8 0.28094763
7 -4.751616 16.408405
-1.8616208 -5 7.6293278
3.0309048 5.2895393 19
-8 4.3299956 5.8142891
-5 -3.70508 5.476759
-8 3.5984876 6.3229046
4.9856586 7 15.225103
-0.92513466 -2.5552747 17
4.8358183 8 6.2068644
7 -0.77649623 11.650716
2.1259117 -2.3441782 17
5 3.1711216 0.95653021
2.6144056 1.0141203 17
-7 5.1759644 18.854372
5.7664256 8 7.3120565
8 2.7157192 2.2951579
-0.93277693 5 3.4289355
-7.6331978 -8 1.3180363
-3.8589814 -0.72720319 19
-0.78525734 8 8.0055246
4.7857609 -6.9617901 0
-4.2021036 1.5488389 17
8 6.572999 3.5704737
3.2814798 -7 16.64188
0.6120593 0.72888678 17
-4.0998611 -5 4.1730194
4.5501871 -8 7.1103773
-0.23638153 -5 6.2017112
1.8852012 0.9701336 19.180317
-6.980577 -5.5897055 19
8 6.0877976 9.7213993
-7 -5.5723047 15.20604
-7.941185 -8 1.7890549
-2.9340019 -5.6450014 19
-1.7672677 5 5.7424173
-7 -6.2240343 16.610992
8 -2.5826232 9.7406168
7 -4.4445372 14.056492
-5 -1.293256 14.043062
7 0.15839672 16.67668
7 6.0060034 13.316406
-1.558148 -7 17.024538
3.3520651 5.9451704 19
5.0720539 5.6585369 19
7.1166272 8 3.45626
3.0432034 6.0748892 19
-5.2180991 -2.2776413 0
-3.564353 6.6355948 18.999998
5 -1.1787823 14.77626
-2.1375158 -6.2884254 19
2.393858 8 3.7887578
-2.1741014 -7 10.650341
-4.4736218 -8 3.3436742
-8 6.5203729 0.78387767
-0.44417953 -2.0926909 19.396538
-5 -1.0560622 6.0751476
-0.77503419 -7 15.870486
-1.9781182 1.9655802 17
1.3296391 -7 11.847626
5 2.7115784 2.3127155
5.3813071 6.333333 19
-6.4327593 8 4.4365687
1.0540236 -1.942994 17
-1.1836872 3.7845395 19.170176
-5.5914249 8 1.4618611
1.3339391 5 15.279392
-8 2.285799 7.7141595
5 -0.27067399 6.4307442
-7 4.7401056 11.4315
-6.6044111 -3.0114179 0
7 -2.1741219 17.384686
6.5430403 1.0933006 0
-8 -2.7771919 4.9493847
5.2637177 3.7741473 19
6.3703561 8 1.7242831
5.8317075 8 8.5442133
7 -2.2555077 13.201201
-7.2034693 -4.5814114 10
-1.9303553 7 14.276522
-7 6.5646868 15.761545
-0.48011255 -5 8.735611
-3.2547011 1.5277514 17
-2.5496705 -3.0362647 19
8 4.4507599 1.136071
-2.3599133 2.8724933 19
-5 3.9779212 5.2551241
-0.90825105 6.6983976 0
-6.8471098 -8 9.9654522
-4.3156757 5 10.537886
-4.8360238 -7.5684385 0
-5.3199406 -5.0889993 0
-5 0.49610019 6.750586
-7 0.074901819 10.268089
-0.80459738 -0.12541202 17
-0.64382696 -7 18.274399
8 -6.893075 0.97170025
-7.8008118 8 3.9730108
-7 -3.0922048 14.050322
-7.9152842 4.245008 10
-4.6909318 -6.8854461 0
-1.2822405 -7 14.820305
-7 5.7939434 10.610913
-4.8957276 5.9141488 19
5.0639191 1.5968858 19
1.9037149 8 9.7380934
-5 3.9120622 2.0762846
-4.2593408 -5 8.5309677
1.8368438 -8 9.9644966
1.5195715 4.106328 19
2.3020041 -5 3.0605109
-6.999198 2.1088827 0
8 -1.6818027 3.8083518
3.995491 -8 1.2530863
-7 3.344749 12.390289
5.3170071 -7 16.673937
-7 3.3082073 10.477702
8 -5.4636912 2.8243873
-0.78718185 8 5.4628129
7 -1.5078602 14.792778
2.0022118 7.3034973 0
-4.5974302 -5 6.4200907
4.1078281 -5 1.8954651
0.18063223 -5 5.5276971
7 -1.1918232 16.39698
7 6.8226786 17.691532
-3.6092565 5.2384586 19
3.2409177 4.9855218 19
-5 0.98103523 1.9839374
5 1.0342774 13.435288
-5 -3.7576535 4.9935894
8 -0.013451695 5.6946669
-6.3862 -8 1.9887818
-0.76689744 -4.7809525 17
-6.8960099 6.9999995 11.075288
4.144187 -5 3.1724124
6.7812376 -4.3373957 0
6.342617 -8 7.396328
-5.7787414 -7 17.313789
2.1296525 5 2.3048601
-0.4857161 7.3448811 0
5 4.0417662 14.115166
0.54565692 -7 10.669338
5 -3.3843782 1.9213659
2.2776189 -5 5.4259739
1.9436644 5 4.7084584
-8 -2.8586247 3.6227605
5 3.0308409 5.4881306
2.4143901 5 10.778982
5 3.3911808 7.2726331
-3.1231318 -7 15.403866
-1.2895241 0.94915837 19
5.1240859 7.1046567 0
-3.9604249 -5 15.386087
1.3018303 8 9.2151804
-6.0793109 -7 15.700691
-6.2640734 7 10.317073
-5.5212278 -7 12.040006
4.4379292 5 11.353838
-4.5472045 -7 15.870671
5 -1.252129 11.417871
5.9218178 -0.62449861 19
4.8308477 8 2.9271894
-3.2880952 5 10.397038
5 -0.82807446 3.9905293
-4.1920009 5.1975579 0
-0.9890967 4.6513648 19
-2.6330991 1.3482306 19
4.5838108 0.93919158 17
-7 -6.2503304 16.927889
-0.54465729 -8 9.6300154
-5 4.544898 1.2232354
-2.0088727 2.540746 17
5.4884157 7 12.936962
1.2627633 -5 1.5210421
8 -4.1576877 3.1295271
5.243855 -8 8.9232903
-8 2.9359672 5.6099586
-1.5259719 5 4.9057527
-7.4073353 5.8715048 10
-6.9999995 -5.0983334 16.276386
5 -4.7853832 15.019506
2.9426053 -5 9.6138554
0.65007877 -4.617609 17
-0.4666543 -7 16.304327
-5 -3.0413847 14.968458
-8 0.57422864 3.3239436
5.0131063 8 0.034047365
-5 2.9306512 7.905098
-2.8363979 -2.6319306 17
-4.695406 7 13.558958
3.6886735 6.5043774 0
7.3972402 -5.2604971 0
-8 7.7552266 8.8717213
-2.805377 5 6.9832592
-5 1.3878313 2.613061
4.5331464 7.7133322 10
-5 -3.5512817 7.1976986
-2.7343087 5 6.7448587
3.2993736 5.4570675 19
2.8672826 7.9532509 10
-1.6332138 -5 10.66328
-8 -6.1904321 4.4427662
-5 -2.0728793 4.0846949
6.5057907 7.3034105 0
1.5066253 -8 9.8122396
-5 -1.1354574 9.7864475
-3.7458935 5 14.910144
5.5077939 -8 1.0586076
-4.6103168 -6.9807558 0
-4.251615 8 1.8001598
8 -6.9346008 1.5156786
2.3232501 7.4939537 10
-0.59339046 -6.7191324 19
2.2961631 -5.9368911 0
-7 2.9120092 18.743488
-5 3.4725862 12.962994
8 1.8184719 0.77349174
8 7.1582575 1.8426161
2.8474565 -5 0.82277238
-0.50510097 2.6397314 19.865824
5.8962941 -5.0649443 19
1.9010594 2.3167229 19.630005
5 -2.8237724 13.223278
-5 0.40606761 12.75775
7 -2.0118134 13.893734
-4.7510571 -8 6.433733
6.1540747 7 10.622442
-5.1500964 5.5803103 0
5 3.42418 1.9469343
-8 -4.9997659 8.3661451
5 -3.5530691 13.429032
0.089439988 4.9129105 19
-6.1918259 7 13.756462
-4.560183 -5 16.198366
7 -1.967078 10.686796
-2.1649075 8 8.7492294
-3.8053803 -5 7.5221839
5 0.86588573 6.6396022
2.2304564 -5 4.1445928
6.9747753 -3.4327693 0
5 -3.2525883 8.0771561
1.6424134 8 5.9808741
5 -3.2827849 3.3304994
-7 -1.5672703 10.481899
5.0607085 -7 11.70324
4.0369978 -5 6.5609465
-0.1194976 1.850255 19
-4.2609501 -7 16.643162
-5 -4.234992 14.711079
-3.1105547 -5 12.15343
2.389837 7 16.69957
5 1.4238913 15.072676
5 -3.0101364 4.434021
-5 3.5298152 16.362999
-5.4797821 -5.4126887 0
-7 -0.89198709 13.952596
-5.1318169 7 11.217793
-2.2189708 5 11.927604
-5 -4.4252944 4.5316963
-6.0741329 8 2.5577953
7 4.4231262 15.299282
-8 -3.0495098 2.7145112
-5 2.2897792 9.9096584
-0.65408039 7 10.704096
7 0.70126104 17.654217
7 -4.2620888 18.110462
-4.5365467 5 12.23157
0.37585545 8 8.8881378
4.3673024 -8 3.5187135
8 6.3603134 1.4893699
-7 5.1549082 17.04759
5 4.9188662 4.0936284
3.8119125 -8 0.19344333
7 -3.8817334 10.287613
-0.89784008 3.8159852 19.166166
-7 2.4933295 16.752167
5 4.3324928 8.243763
-1.2633533 8 8.3062496
5 4.0967979 14.805896
8 0.50172019 9.0485497
4.844007 -7 13.004379
8 -3.9306352 6.8300581
-8 1.0910971 4.7569528
-3.1907947 5 7.5012107
2.2217178 -8 8.1321468
-5 3.62713 6.5216804
-2.290801 0.007794261 17
-5 -2.7607436 16.935799
7 0.37157297 18.104031
-6.2433681 7 11.731981
-7 -0.90003204 17.412628
1.5252734 -5 13.695862
8 -1.9300966 5.6325774
3.5105386 -5 0.25975001
8 1.0482817 8.5601215
7 3.5679748 13.408602
8 -2.3921092 8.9535999
5 -0.31514215 9.6896133
5 -1.1263571 5.932054
-7.9992013 5.8761339 0
5 3.5657549 4.7708454
8 7.270978 9.2194319
0.38454801 -5 12.431157
3.2456706 -1.715486 17
6.2109327 -7 14.827987
8 -4.4181337 8.9214973
-3.4016585 -7 17.581223
4.4159517 -8 9.7842636
-8 3.5331039 1.5496621
0.31698251 8 6.9976864
-3.0401802 8 3.8484485
-5 -4.9628606 13.814274
-5 2.8171804 8.7026672
-7 -3.9014215 16.568792
0.62367296 5 14.294724
2.4160063 8 4.4646358
-5 -4.0219426 13.773243
2.268681 1.2637825 19.838394
0.14753038 -5 8.2706461
-4.9061899 -8 6.81915
4.2193856 -2.3309901 19
-7.810431 6.9091411 0
-4.4000015 7.8128829 0
8 -2.3769267 4.0687714
7 -6.4737005 14.72395
-8 -0.013401985 3.1422966
3.289856 -2.2439594 19.036484
4.1436663 5 14.949336
3.940671 4.0630226 17
-5 -0.90490592 11.527158
7 -2.3358898 12.835841
-1.67994 6.2176123 0
5 0.35663557 12.876114
-7 -3.3568337 11.565097
-5 4.6685829 13.77755
1.8892823 -5 11.484826
8 2.1478853 1.6953456
4.6299243 6.9301167 0
-5 -4.9001083 6.7375879
5 2.0589285 5.3846684
6.8344965 -7.0000005 15.220243
5 -1.7761966 10.300575
7 4.0849314 12.627458
5.1992955 -8 4.1993437
-5 -2.7776597 9.3341961
-2.8054082 -6.3318052 19
7.0367889 8 5.5816021
-7 6.1789627 14.29056
-7 -4.8798628 14.012236
-4.3519311 -7 15.157682
-1.0426621 5 9.3656807
1.3689312 5 13.554323
-2.4244387 7 10.498802
-1.3634161 -0.83379847 19
5 -2.1599987 5.4279008
8 -6.1139479 8.9158173
-0.012722969 5 11.899653
0.91586471 8 9.7493744
2.0863185 5 16.505741
8 3.8420014 9.0010281
4.6530018 5 2.3958569
-0.40116405 8 4.0462799
4.7939882 7 16.185968
-3.6628845 3.987236 19
-8 -3.497293 6.7832494
2.6155071 5 2.1643028
7 1.7158003 18.753777
4.5411544 -8 9.2441702
0.87147164 8 5.9669795
-2.9979146 -7 18.029772
-1.1871517 -4.3147821 17
5.1319032 7 13.328903
3.1758721 -7 16.209833
-5 -1.0397229 12.310047
7.2636847 8 0.70928693
7 -6.3961349 15.351208
0.09386763 5 16.884527
5 -2.4755368 12.313915
7.3056774 8 9.2066917
3.1279089 -8 5.8318782
1.720804 5 11.413878
0.56975937 -5 6.8030605
1.1178918 5 2.986294
-7 6.9923563 14.734364
-3.4596586 5 1.9826851
4.8000059 4.9999995 12.828767
-7.089015 8 0.69161814
2.4809647 -6.405735 19
-2.7030096 5 5.9722023
7 -5.4159284 15.932149
-0.18873155 -5 14.551378
-3.7983539 -7.1088076 10
2.3939695 -7 12.505282
-2.8451896 5 5.735755
-4.5867558 5 11.6431
-4.2438378 -5 8.1309404
-1.3677812 -5 13.283581
-2.5304859 -5 15.730023
-7 -0.0017279088 14.443197
5 0.66314262 15.545323
8 -7.8420563 8.4186659
-8 0.64388728 8.4182892
-3.0381913 -8 6.7864151
7 -5.0654998 11.154315
-8 -7.7003922 2.4140968
7.6958675 0.82068944 10
1.3615961 -8 6.3697615
-2.7825637 5 3.087743
0.5836041 -5 14.547691
-7 2.4625721 17.113958
0.11885262 5 3.1681724
-8 -0.57848716 2.6036043
-0.18391585 -5.6552687 0
8 -6.8660917 0.38791272
-7 3.4784298 15.740645
3.4563217 -7 12.763317
1.1432343 -5 3.4345748
5 4.6107159 2.6823838
1.7105978 2.3752868 19.289822
-4.5136356 -7 16.55192
4.8427815 5 6.3419652
2.3699334 -4.3838849 19
-2.3252749 5 1.8716227
-5 4.542397 11.645076
8 -4.2092576 3.311862
5 2.868021 8.6159191
6.0107126 -7.9935169 0
5 4.1506557 16.977867
-5 -4.6353555 0.67177624
-3.6267164 5 2.1020446
-5 4.9879031 12.059124
-3.9905381 -5 13.477316
7 1.0214033 14.098347
1.3328509 0.39137125 17
5.7433958 -8 0.045086894
2.9085464 -7 14.472556
-1.4872918 -5 7.7332668
-5 -2.3176618 8.6416435
4.781179 -7.4560781 0
-5 -4.0380998 0.095335364
3.1734769 6.8354316 19
0.95054364 6.6693306 19
6.1027613 8 7.8313637
-4.8196349 -8 0.44097763
-4.8492165 0.28410363 17
8 -7.5028648 8.8720875
2.945004 -5 13.685067
8 0.65623569 0.48996517
4.9100599 2.3574367 19
5 0.047362208 11.100756
-0.22382522 5 10.315393
0.051184893 -8 5.5301957
-7 -5.3305459 16.753763
-0.06208992 5 1.2762706
5 4.5123281 14.739215
4.2104368 -5 6.0543871
4.3186789 8 1.4667624
1.3561684 6.0436583 19
-5.5750871 6.1843338 0
7 2.5454779 14.888466
8 6.4632568 6.31109
7.9624491 8 4.1267543
-6.8414059 -8 3.0211139
-7.6097131 -2.2894387 10
-7.0055904 -8 7.9076767
8 -1.5093784 4.9173369
-7 -5.7691183 13.808418
-0.16499233 -3.264812 19.463039
-5.4317288 -8 4.7943177
4.6585121 8 8.1832151
-3.5283382 -7 17.145472
3.5323546 8 8.0234966
3.1863036 -8 4.8379788
5 -0.86160767 9.1628799
5 -1.4466351 15.366319
3.4987431 -5 8.3773155
-2.9814634 3.0638542 17
7.0000005 -1.5720019 17.917681
5 2.7306905 14.289888
6.9464359 1.3686678 19
-1.0616491 7.4194961 0
-3.2688217 -6.3329763 0
-4.6756401 5 11.723047
7.5658722 4.0540943 10
3.7278051 8 3.2374959
7 2.3163326 11.757561
-5 4.9115586 7.9773941
8 -3.2580814 0.39612374
5 0.0095233917 10.135474
0.33343101 -5 7.8724489
-5 0.70596838 16.626059
-7 -3.574487 13.207327
-8 -3.526211 8.1455936
-1.1404095 7.685791 10
5 3.8609748 15.230442
3.0575371 -2.0720203 17
-5.6160755 8 9.3047514
-0.59785461 8 4.6593227
8 -3.7361426 5.2950811
-0.80587626 8 1.5311801
7.984592 8 0.75568736
-8 -3.5640869 7.6523123
7 6.9171143 10.284186
0.14678437 -5 3.0010252
-7.0000005 -4.1967778 18.752764
7.8649688 -4.3446364 10
3.2760303 5 5.3181176
5 2.5544329 2.0567358
5 -3.3878531 7.1558633
8 -6.7336307 2.8926778
5 -2.3456323 4.726162
5 -1.2038457 11.943012
8 -3.2393842 7.3460388
1.9534855 0.51654553 17
5.7228618 5.0726824 0
-2.0935295 -5 13.209229
-0.47949815 5.1242437 0
8 2.5598507 2.8339248
-8 0.026842833 8.2706842
5.2501035 -7 14.880739
3.7928281 7 14.362823
-5.6387444 7 16.510668
-8 -6.7478194 6.6201153
6.5789089 3.4903033 19
-5 -2.3846068 15.772035
-0.59562016 5 3.3023579
-7.4154544 -6.1560984 0
3.2144244 6.9999995 12.794685
-0.6385386 5 9.9255352
2.3125451 6.6889601 19
-4.6002531 -5 13.349191
-7.2093649 8 6.4718733
5 -4.6315508 9.3339176
-8 -6.8204336 4.7734385
-6.680582 -0.50596619 0
0.48325551 -7 17.235996
-4.2604337 8 1.6767961
5 1.510231 13.143908
8 7.4482317 1.7659616
2.0726576 -8 9.3446045
5.8976641 -7 11.902788
8 -4.8030667 4.7596121
5 3.9695747 6.4424434
0.49080825 5 1.492083
6.798955 8 5.4850187
-7 4.3932657 18.94565
-1.5185018 5 5.4805474
5.0000005 3.4141068 12.827466
0.078213692 7.9814906 0
5 3.9623792 1.3916794
8 4.3271265 7.345099
2.0986183 6.3289714 19
5 1.5638102 8.0135174
1.1926155 -7 17.69482
8 -3.2506905 8.6603117
-2.6954541 -7 15.799524
8 -0.74791241 0.46182543
-5 3.7597313 5.910882
4.4232483 -5 6.1100235
5 3.5588942 1.661033
-5 -2.3573682 12.12196
-5 3.3940475 8.5420055
8 2.9372406 0.73860812
7 -0.95858002 14.37118
4.7706456 4.9999995 15.830206
5.1105833 -2.3112364 0
-7.0000005 1.3596227 14.197228
2.6617599 -7 14.965903
8 -7.4466639 3.3128591
-4.9153838 7.3365731 10
8 6.7905436 0.79082096
7.970655 2.3868701 0
-7 0.97941494 11.279504
7 -6.4596272 13.645803
-5.3664303 -7.7718611 10
-7 1.9145679 17.566858
-3.6348405 0.0023308992 17
-1.2349699 -7 10.366065
-0.2751292 5 15.341969
-8 0.081276417 2.1696208
-2.549788 -5 12.045341
4.9999995 -4.616888 6.4181962
8 6.9866734 5.7005358
-8 7.4910364 8.1683788
1.4213804 8 3.6588395
-8 4.6000834 1.1710035
-3.7977369 -6.345192 19
-7 2.7326798 10.22785
7 5.9379864 17.164482
-8 -5.7663383 4.8797317
-7 1.40368 15.719906
-4.3327904 7 13.741543
4.0162382 -3.1333389 19
8 4.6439819 0.87811416
-5.8789034 -8 2.7233877
0.80150688 -5 12.659779
-1.5578768 -8 6.3675852
1.25121 5 0.72131735
5 2.2796261 16.704191
7.012877 -1.3799591 0
3.856108 5 5.0787969
-7 -6.2131248 18.831104
5 4.6843243 11.888949
8 2.4260788 9.2947969
-7 -3.4439802 10.054977
5 0.12072277 4.9415102
-5.616045 7 16.794928
5 -1.5064098 0.12859796
-5 0.94626379 16.398621
-2.4025922 6.9999995 11.927238
7 -1.9176688 10.993959
5 2.0894423 7.5817895
5 -2.3664322 14.499477
-6.4090552 -8 5.8585463
4.1957836 8 7.3520999
-8 -6.5727968 5.5697727
7 -1.3520308 15.265396
7.3660936 6.5295081 10
2.199316 -1.336761 17
8 1.2395892 9.6459618
6.561183 1.209439 19
3.4494865 5 11.161743
-7 6.57728 17.467409
-6.0542517 4.6033115 0
7 -2.7090082 11.68203
-7 -4.3619413 10.772039
-4.5497713 7 17.784876
-3.8967228 7 11.829698
-5.7885542 2.5740814 19
-6.9647532 8 2.0978489
-8 -2.7474217 8.9444456
-5 -2.0852351 15.746605
-8 0.48109537 4.452909
-1.5497974 5 15.679338
0.2374379 1.9069538 17
2.186131 -5.5890975 0
-7 1.8673106 15.221535
8 -0.66435337 4.4650717
7 -1.0921898 16.122198
8 -6.5052576 2.9522867
-6.772541 -7 11.617044
-5 -4.7900467 10.28183
6.7046232 -2.8873081 19
-8 3.0802658 9.374259
-5 -1.8791076 10.044449
-2.1909437 -8 0.96927774
0.71385503 6.6805902 19
-3.9943924 5 8.949192
5 -0.27588803 13.547705
6.1953568 -8 3.7780452
-4.72648 4.8997111 17
-4.7887411 -8 3.5935974
8 -4.3014798 9.9664154
-1.4558377 -8 0.9267267
5 2.6807508 8.035018
-2.1055765 -4.777668 17
-5.9315996 -8 1.5524386
-7 0.88128352 10.123158
-1.9526742 -5 3.6704288
-7 -2.547009 10.497109
-3.8168907 1.8923615 19
5 0.82771969 0.17261922
7.0625653 -6.6470904 10
-7.3305745 -2.6795583 10
3.9581847 -8 8.2575741
-5.0588636 -4.0716586 19
7 -4.3260655 10.523266
-5.4148302 1.1721958 0
-0.027220627 2.5432558 19.267948
8 -4.6201644 4.8143959
7.1946783 8 2.8507435
-3.7058506 5 8.7315884
-1.6799296 5 7.2817812
2.2102239 5 5.8936357
7 -1.4716609 11.696054
6.5555305 -3.0148292 19
-5 -0.26264322 13.932997
-1.6440058 5 7.3145924
7 -5.7460575 13.089966
-0.93471068 -3.6754048 19.554237
5 -3.7448847 11.845767
-3.3489089 5 15.130616
-4.5411215 -7.0000005 10.986444
-5 -1.7773353 11.618044
5.533514 2.3293619 19
-8 -3.1376352 4.0806637
5 -4.0998921 8.8636675
-2.3376358 2.2110746 19
4.7053781 5 11.061434
-2.3305359 8 4.0447035
-5 -0.28865987 10.787849
2.6940298 5 2.5271311
5 -1.0537496 15.361755
-3.4967282 -3.1853535 17
3.5153146 -4.9999995 1.1841604
-0.28167152 5 6.7230778
-7.2723422 -2.4138675 0
5 2.1008053 10.827442
7 -0.28028351 10.794012
-0.6020689 7 14.609936
-0.69623327 -6.262495 19
-1.5837715 -8 2.6125977
-6.9348135 7 14.594143
-2.9098182 5 7.3749337
0.97325611 -5 2.1306703
5 -2.402132 1.7840288
7.3198986 -8 2.961134
-5.843327 2.2012973 0
-5 -3.1081941 13.240971
-4.4680748 3.3525028 17
8 -6.9518604 0.12008388
5 2.240634 0.94371122
6.8056021 -1.560076 19
0.71560776 8 1.5642029
3.0240967 7 13.168524
3.7649605 -5 13.458967
7 3.8706284 15.414236
6.4972515 -3.2635922 19
8 5.7428722 8.5008802
6.1918931 5.9616017 0
6.4272976 -7 18.87219
3.6441572 -5.5186334 19
2.0958023 7 18.886862
-0.17192018 -7 16.810387
1.2799344 5 11.593534
-2.1710215 -0.3847031 17
-5.6140027 3.8226829 0
-1.003011 -8 0.78698212
-1.0646529 5 16.762453
-4.9709539 5 0.030670764
-3.5231326 5 14.937603
-8 -5.6217837 8.5631571
2.7333722 -3.882014 19
-2.8853219 -2.6217842 19
8 -3.2332909 4.2922487
1.1947972 -5 6.2802157
2.5216889 -7 15.782772
7.9565315 -6.5671849 0
2.8503382 5.6394434 19
-6.5225449 -8 7.4269352
-2.6473722 -8 9.4972248
4.6952558 -8 3.3553157
7.4902964 7.4985132 10
2.9479275 -2.0991511 19.770649
-5.320528 7 11.345103
5 4.5913134 7.0527558
5 3.4910364 0.28437069
-7 4.0729237 10.83287
2.3374557 3.8678551 17
-5.387063 -8 5.1887684
-8 0.5047158 9.0516052
1.2518458 -7.9307246 0
7.6144333 8 8.1823254
7.1218915 8 8.212677
7 -5.9119534 10.42061
-6.2832417 6.278007 0
8 1.6763916 4.3691196
8 -2.9173317 1.5976956
4.9571905 8 1.3669711
8 0.33137608 2.5489926
5 -2.4670544 13.942648
-4.8952351 7 14.956938
-7 -3.2788901 11.119184
-3.6743734 7 14.894115
0.94239956 -5 12.806674
5 -0.023742557 11.274101
5.0000005 -4.8300772 2.4878392
-2.7547402 -0.075842775 19.963669
4.9022288 -8 0.075816281
-7 -1.5267816 17.150934
-3.631403 -5 15.479597
-0.82174778 -8 3.2655447
-3.4227552 -5 4.7984161
7 -3.8299685 13.364065
-5.4160528 -8 7.5907879
2.9167755 -5 4.9441891
6.1130319 3.7037344 19
-7.9472604 3.7743921 0
5 1.7042532 13.066117
5 0.5086813 4.648849
3.3238769 8 2.8887801
-8 6.3045068 0.23531961
-2.3217063 -0.53353852 19.470812
-5.3549647 -7 10.103327
-5 0.024042249 12.701517
1.8696303 3.7169697 19
-1.850276 -5 3.0623651
-8 1.6572216 8.45189
5 4.8668213 11.659824
-5 3.270169 9.4919376
8 -6.5291514 2.8568649
-6.7892146 6.651371 0
4.9541535 -4.9999995 16.823952
3.0268984 7 13.658785
6.4566584 -6.215178 19
-1.7427793 -0.79117733 17
1.7530811 -5 0.30889505
1.1511173 -7 10.142855
-4.219244 8 2.3635864
4.7454963 -7 17.427261
-8 -0.81370234 5.3142948
0.56165218 -8 0.78036422
-3.9966247 -0.98839927 17
1.1681559 -2.7620804 19
5 -1.8414664 10.196222
-4.542182 -5 15.81113
7 -1.4520009 16.536718
-5 1.4156344 11.55636
-0.21647096 -5 6.1529675
-4.6975136 -5 9.510397
3.3589251 5 13.051299
3.4021821 -5 14.374887
6.71911 -6.6876307 0
2.6271193 7 14.357907
-3.5298669 -8 2.5728133
-2.5316973 -7.910306 0
-8 5.8321471 9.6180897
-7 6.4965501 11.837363
-8 2.7102766 0.99296874
8 -4.1046681 6.707119
4.8722715 -8 8.1633005
4.4457521 -6.9999995 10.939178
5 3.0366521 16.035053
5 -0.23177871 15.071409
0.55279064 -2.1909676 17
-8 4.3158417 3.674943
-5 -0.31950387 10.218348
2.3123624 5.5647163 0
7 2.7513061 10.820208
-5 -1.0551167 5.6332545
-4.1693554 -8 2.3913622
-0.54964232 -8 3.4061797
-3.9978192 3.9961832 17
-0.94128036 8 6.0121045
5.7948089 -0.036817655 0
-0.9811821 -8 0.28283608
-5 -0.14746857 13.526005
-7.7087398 5.905993 10
5 0.8516736 10.099215
5.7487097 2.9005682 0
-5 -0.8136574 7.6245193
-2.5188026 7 11.206077
3.0270672 8 7.6295786
-2.2463853 0.41768172 19.470802
5 -1.0172714 13.246166
2.0416019 7 12.737387
7 0.11848831 15.953793
-4.9197116 -8 1.5766098
0.88015628 -7.0817585 10
-0.45150304 -3.2900815 17
-5 2.5322478 7.3508554
-1.0721087 -8 4.4524255
-7 -5.5618649 16.524446
-5.2608671 -0.4204601 19
3.1110747 -8 6.6696138
5.033905 6.0112104 0
-0.78525782 7 16.836287
5 -1.0199238 2.5057318
7.1690726 -3.305649 0
5 2.1369343 11.858996
-3.929141 7 12.422047
4.7377954 8 6.2449751
-6.921073 8 2.8005657
8 6.6266336 8.2294474
-0.92739344 5 1.5517026
8 -1.5055062 7.9098926
-0.14627671 -7.6377344 0
-7 -2.590534 13.423893
-8 -0.29810357 2.1629033
-2.125963 -5 14.04047
5 3.101758 8.0836258
-5.8384805 -8 3.0296011
-5 0.70831752 4.3387499
4.0232344 5 6.3998017
5 1.6015692 4.3678455
-5 4.9767447 13.430605
-7 -5.9273777 12.040179
-2.2708759 5.6521177 0
0.60181618 8 6.6536579
6.4429903 -7 15.729095
8 4.5902615 5.6568556
-0.31414515 -2.5658298 19.715702
-2.6307945 -8 5.2877131
-0.65907741 -1.0108476 19
5 4.1607037 0.88928884
7 6.2181239 10.39055
7 -6.1078572 11.737818
-5 4.3150578 2.9646902
7 -1.3118751 15.821781
-5 0.49512869 0.49311018
1.1163597 -5 4.691205
-3.0833073 7 12.15962
7.8995275 3.9490967 10
7.1549358 6.5358133 0
8 0.33644962 0.3190445
2.7238655 -8 0.079953834
-7.5587883 8 6.3770404
8 -5.2404861 0.53302807
-6.7518044 8 5.1515574
8 -1.5089823 4.3272095
-4.8087788 -5 11.471147
-4.9184933 5 9.1061211
-1.1234808 0.67634106 17
5 -0.16791737 14.489555
-0.58026409 8 9.1333866
-7.3234763 -8 8.8971825
0.361269 -8 0.54177761
-4.3336301 -5 1.3031112
0.74713945 8 4.1726675
6.0357804 -5.2613811 19
2.229502 5 5.6722522
-1.4845014 5 2.04934
-7 -5.2929401 11.158182
5 -3.7991323 9.5850067
7 -0.7513839 10.975183
-7.4087105 -1.4924576 10
-1.0838976 -0.29313344 17
1.1178044 -8 9.9510183
-0.15241694 8 3.3561194
5 1.0557975 2.8379135
-3.9246943 -6.5625916 19
3.4273436 -7 18.966101
8 -3.6220233 4.1577492
-5 4.7051783 15.619817
-4.1880722 5 8.8736343
-0.72774458 -7 16.491369
-5 3.5091465 10.444277
3.217582 -1.742768 17
-5 1.5609026 10.877803
-1.4232075 7 12.229673
8 1.0346794 0.68193203
-8 -7.4099598 3.2563424
5.8111634 -7.8410244 10
1.5178685 -1.6649244 19.375067
-4.0706816 2.832099 17
-5 -2.3869624 0.89666879
7 -1.8593954 10.041393
7.4262519 8 1.8813998
5.1824403 -7.2822852 0
-5 1.3533382 3.643579
1.8210545 -8 0.65649807
8 4.1689858 9.6892128
-7 -1.8314016 11.650915
8 0.80798912 2.5498857
-0.6622231 8 0.31717181
-4.6566658 -5 15.926264
-8 -0.085105419 4.0885015
-7 -6.210968 14.262091
0.079322577 -7 15.166674
0.0091953278 -5.927146 19
-7.4205933 8 6.9402757
2.6959131 5 12.666961
-0.4291482 5 3.5569301
-4.4123783 -0.12123811 19
0.16402292 8 4.2735286
-1.0411162 -3.8286819 19.096642
-2.1718757 8 0.85172117
-3.3168232 7 18.835182
-6.639781 -0.90248001 0
-0.66165066 7 13.588876
-0.83264881 5 15.079694
-0.84456635 5.565279 0
1.6656322 5 11.169455
0.5292635 -5.7785168 19
-5.8051414 7 15.917789
-7 -3.3142192 18.198221
8 0.45658588 0.14866984
5 -2.4879014 7.1354542
5 -0.99155271 7.1995254
-5.4801235 -8 2.0887449
-1.2151499 5 10.218806
-1.3328817 6.672061 19
-1.4885566 -5 2.31813
3.3360481 -4.9662623 17
7.1254907 -1.6091006 0
-4.482697 -7 13.173844
-4.3731403 0.1111429 19
-1.8349615 -3.0994093 19.295357
8 2.0249138 1.8620408
2.2783921 -8 9.7453556
2.0599308 -7 14.367733
7 -1.0791435 15.721129
-3.0887163 2.2118211 19
8 7.9880581 5.7889733
8 -4.315115 0.32453519
-8 -1.8264884 9.0909853
2.3741388 7.742877 0
-6.2388949 0.82843179 0
-5 0.037037253 15.150812
-8 3.8036513 9.554575
4.596005 -7 10.057391
-3.4627781 8 4.1718936
8 -2.1504228 6.6446209
5.9063702 -8 1.20813
-5 1.6079049 3.4956331
5 -3.2316828 1.8053505
-1.937089 -2.5207071 17
4.5209384 6.0356636 19
-8 3.1179492 1.6396743
2.9016891 -5 6.9748735
-5.1818123 2.3957379 19
-5.1745329 4.0270405 19
-4.7420564 -5 4.83427
7.850831 7.793838 10
2.7997451 -5 15.058664
1.3535067 -7 15.263825
-2.8217697 -5 13.323669
-8 6.1598167 8.5490875
4.4309835 5 9.5329142
-2.9032555 7.4707136 10
1.0265931 -5.1190271 19
1.9279412 4.8198662 19
-8 2.2012739 4.2308679
1.9237761 5 9.3240957
-8 4.278657 4.7775102
0.33222151 6.9844661 0
-7 -6.8910108 16.017366
-5.8322749 -8 0.43346083
-8 3.2291288 1.0845082
-6.8034172 8 7.9392238
5 3.9951677 11.376308
-8 4.0687408 6.0361452
-8 -6.2934794 3.2544703
0.20682406 5.6605654 19
6.0591183 -8 7.8988485
0.44417405 -5 1.1944776
-1.6868873 -5 15.330307
2.851119 -5 15.405497
-4.0365672 -5 5.1749544
-8 3.3293147 9.8685417
2.617496 -5 13.359579
4.9900045 8 2.4139071
1.3725202 -5 0.2327522
-7.2524385 8 8.1730242
-5 -0.93318009 13.087677
5 -1.1859213 12.889875
3.7116308 2.9173903 17
4.7168117 -8 9.7695971
5 -1.8026518 1.7920728
-5 2.4422789 4.7798891
7 4.7838736 17.854927
3.3225813 5 6.7202668
8 0.97679424 2.2281244
-3.8213027 6.1346364 19
-7 2.5312018 12.485546
-8 3.3798084 1.1584806
6.4242835 6.9999995 11.190187
-1.9099603 2.9960876 19
1.9027679 -5.0000005 3.933475
7 0.15620363 11.563694
-3.2244062 8 5.2795095
0.60091686 5 15.471133
-5.1855555 -7 14.612463
-2.6277494 -5 6.9388885
5.4393811 8 6.8922257
-2.7702556 -5 5.2034512
3.0911858 8 3.9215314
-0.1723094 -8 0.79661167
2.7699008 -8 3.9019172
8 -6.6883321 4.9030318
5 4.1112595 5.7202616
-4.5472088 -8 3.9882615
-3.6134858 5.3357444 0
7 -3.4949284 17.245762
4.334188 8 2.7963138
-0.46547258 4.9056797 19
8 -6.985919 6.8845067
-5 -0.85942501 10.441122
-1.1369624 3.6855831 19.483959
2.7447896 8 1.400187
8 7.6690445 2.0769129
5 2.1109748 7.6020684
-7.5244288 -3.77068 10
-1.6899428 -8 6.031415
-5.3196859 -7 16.924665
-5 1.1604934 2.4418745
1.2316272 7 17.351217
7.4627748 4.2424822 0
8 2.9774323 3.2296863
8 -4.777195 2.4365354
2.5493021 -0.31303859 19
-0.72117609 -5 12.317629
8 2.0317669 1.3208412
7 0.79342723 10.278434
1.9275403 -5 7.9338484
6.2612596 7.80195 0
8 -2.0337279 5.5004969
-3.5508595 5 0.97188646
-1.7189133 2.7771976 17
-5 -1.9419165 6.0127139
-2.7795382 5 16.056335
3.2087862 8 8.6285715
-4.4736218 -5 3.2056751
-8 6.5618525 6.2468843
-2.5844846 -5.8840885 19
-3.7881203 5 9.3710289
-8 -7.5039325 6.2236285
-4.6678123 7 15.857992
6.3211875 -7 15.200135
-1.5985439 -5 16.891819
-4.3432698 -8 1.0270498
0.10202909 5 8.5648174
1.2885956 7 16.849205
7 5.4740448 12.113377
-7 5.1908026 17.761393
5 -3.4876485 4.1303873
1.8793318 1.8119507 17
-7 4.5844202 15.252855
1.9880524 8 6.3861432
8 1.4058161 2.8338926
3.2568026 -8 9.3336401
4.2436476 8 5.3050132
-8 -3.0877914 3.3422837
-7.031435 -3.1324089 0
1.3543689 -5 9.6109715
6.9184332 -0.40783316 0
2.5776062 -4.9123788 17
0.27373409 -1.461772 17
-8 0.59634995 4.1078954
-8 -0.48013306 5.7607336
-2.0796859 7 16.340942
-4.4659996 -5 7.191113
3.476681 4.8344154 17
-7.3918819 -8 8.8963737
5 0.89194506 16.805397
-7.0000005 -6.1708817 10.499722
5 3.1948557 12.673052
5 0.82872963 6.258049
3.7283249 -8 8.4397907
-4.0390019 6.6749005 0
7 -6.3737226 17.864193
-6.0308361 -8 3.9369261
1.808066 8 1.0887188
-1.4900017 8 5.4076161
-8 -5.4389243 7.8863473
-5.8197536 4.5442944 0
-6.6200571 -8 7.6793914
8 -4.7055235 3.0055809
-3.1429989 0.021220854 19.9884
-5 -4.5988131 6.8241277
8 0.048941612 0.39610735
-4.1130986 6.3452792 19
8 -7.7887683 5.3904324
7.8267956 0.37977576 0
1.843523 5 5.3575048
2.6527195 8 7.8271003
-7 6.3231525 17.199249
8 0.13258076 3.8589785
7 -0.066376925 15.157215
-3.1653616 -7 12.962395
7 6.6124887 17.240007
-0.67806679 7 15.485463
-5 0.74957657 14.691254
-1.1920218 -5 4.2437673
-1.9956051 -8 9.2013178
-5.2647662 -8 5.7723694
6.0883055 7 17.880907
7 -0.32952332 11.877579
8 2.6625309 5.6467876
-7 -5.6733341 13.188635
5 -4.7679038 2.5222611
-5 -4.2324276 0.68428451
-2.677228 -3.9390156 17
0.58745289 8 5.8595133
0.75128245 -4.0511036 19
-1.7767254 -8 5.4484601
5 -3.6015694 7.3826303
8 -5.8602185 9.9270878
1.9342638 -5 8.9299908
1.0765071 -7.7637162 0
5 -0.17668355 13.309756
-8 -0.88106531 8.2827873
2.4590006 8 4.1415286
2.8870044 1.9832505 19.848095
-5 -0.086360097 10.455815
7.0804052 0.30262399 0
4.6504507 5 12.871898
-0.85719776 -1.1308463 17
8 -1.3985788 8.0265865
-6.9802608 1.9518788 0
8 0.27943993 6.9374976
5 -1.9389844 3.568433
-3.4535861 -7 14.37606
1.5591274 5 12.531411
1.1514101 -5 3.3352816
-7 1.7624693 17.539351
8 -4.6623402 0.26434022
8 -3.9853971 4.0990295
4.5844893 -7.565136 10
-8 -0.28489137 0.51280296
-8 4.4444342 7.381876
2.7236419 -2.0257635 19.905727
-4.4273529 5 9.4678059
-5.6245103 3.4712589 19
2.0922949 8 3.8330293
-7.2994914 5.8596568 10
5 3.1033795 9.0370207
4.7336164 5 8.8296204
4.7413406 1.1305528 17
1.1671183 5 9.3818016
-8 0.11205947 8.2183914
-1.1915103 -5 13.563955
-7.6448283 -2.5745888 0
-5.6960788 8 0.20918846
-8 -5.435873 6.2942653
-6.8198118 -4.4177489 0
-0.42380428 5 9.211688
0.86426884 2.8231201 17
-7 1.0424888 14.907863
-5 1.2581927 3.6303384
-5.0674062 -7 10.309888
-8 7.0779114 4.0019798
-5 -0.67502487 15.822227
-2.6329782 -7 17.547113
-1.7253947 -2.4350255 17
5.6759067 7 16.866394
5 -1.2757703 10.927996
5 -4.4444733 4.1795559
0.70538795 -8 4.152679
-7 -5.1930184 17.02854
5 -3.6800201 13.078266
-7.7780943 8 3.8976912
2.929852 5 5.5599179
1.8391261 -5 6.3888035
5.8146729 2.5698047 0
5 1.6454668 5.0455551
-4.8652191 -8 0.27779466
-5 -4.7372742 0.93563855
-0.36175013 5 11.596551
7 -3.0880158 14.905104
-0.29675126 -2.3298292 19.548298
2.9588261 -5 0.53145367
-1.9703169 -8 5.2736373
3.8259263 -5 7.2216454
0.0084187984 -8 2.0891831
2.6999304 -3.4653568 19
1.0967283 -8 0.82985884
-1.7061863 8 8.6774387
4.6956615 -8 6.2853756
-2.415967 5 6.8793678
-2.5784965 7 18.516846
-5 2.29704 15.075518
-0.076779366 5 7.38937
8 2.5884047 4.1262422
-7 -5.2859159 17.690132
-5.2470779 8 0.43919265
8 -6.6339025 4.3174243
0.40190864 8 0.47633469
5 1.432817 8.7928629
-5.4497862 8 7.864181
-5.0930457 -4.7834096 19
7 -6.9897757 11.328725
-7 5.6114554 11.203977
-3.7960358 7 14.834204
-1.3425512 8 7.9613452
8 0.046008348 6.1275401
-1.9969349 8 9.9512339
8 5.0847344 9.0832243
-5 3.5284429 13.358548
-2.1549792 5 11.924618
-7.7588401 1.0972345 0
3.0965819 5 8.9946804
1.2363017 5 16.942692
8 6.7547655 8.966361
-0.75367069 5 6.717185
-5.9141502 6.6769466 18.999998
2.9252565 -8 3.2233834
7.4444728 -8 0.72739154
-8 -6.0175781 3.3578949
-7 5.9326534 15.762228
-7 -4.0484037 14.160019
-8 2.2277081 5.260488
-7 4.9881992 13.127365
-5 0.24274325 2.6388652
-5 4.8712754 16.057138
-8 3.4144866 6.8467908
-2.7166615 8 4.064992
-2.0435169 0.27327827 19.008451
-0.85408783 5 7.5813541
5.9406161 -7.2288055 10
8 6.1456356 0.89401245
1.6847124 7 13.032785
-6.892889 8 0.76930618
-3.883172 -7.7096825 0
4.8604765 8 9.4604502
5 -0.64786184 11.06916
-6.664187 -5.608264 19
-5.0000005 -3.898253 0.85443431
3.1311455 -5 12.347712
1.0800354 8 0.55970073
-5 -0.10653746 5.5808387
2.8131583 -5 11.034307
-5 -1.6670592 1.8815496
-5 -2.195991 1.3841654
7 1.0854244 15.128279
-4.0519958 -8 7.6889715
0.57893604 -5 11.864866
-2.9390564 5 6.8008966
-8 3.7408311 6.4606743
2.620512 -7 14.697056
5 1.0053449 9.6925564
-3.8662386 8 5.3651047
-4.0855179 7 11.182548
-5 -4.9179225 2.7924159
2.5259428 5 12.252567
8 -4.3616199 2.1249721
5 -2.5472081 8.539959
-3.5699825 7 10.80554
-8 7.2320681 9.2708092
-5 -1.6705608 2.4026101
4.9095592 -0.87557834 17
-7 -1.2820332 16.146742
-5 3.615926 7.1630807
5 -1.8142503 11.448513
5 3.8152184 15.098811
8 -7.5641747 4.1138983
1.0653055 -8 8.0547409
-4.4225564 5.7593288 0
-3.2946134 -5 1.1243161
-5 0.37801582 9.6604548
0.81757128 5 13.248072
0.85049808 3.2672644 19
-7.3533611 -1.3600268 0
7 4.519393 17.455935
5 0.64332938 16.531385
5 2.1649537 12.693223
1.7775213 5 2.1453295
8 -7.2809119 6.7285571
-0.64005089 8 9.9615936
-1.2891607 5 0.71746242
7 -0.57108402 11.349367
-8 6.2858992 6.8879399
-8 -4.2639241 8.2352772
-7 2.3528771 10.246842
-4.658864 -8 0.81900716
-5 4.0205908 13.895433
7.590477 -3.504739 0
4.8008261 -2.118434 17
-2.2543764 -7 15.96361
2.2816265 -7.0000005 17.715689
-7 -2.473 16.886917
5 2.3899488 16.767483
-5 -2.423789 11.133554
-8 -3.5866921 3.0273046
-8 3.9137452 5.2661242
5 0.96261376 14.342025
-7.0000005 -6.3183784 17.467264
-1.6314374 5 11.093181
-2.3077021 -5.9565535 0
-6.9608254 -5.7919369 0
-8 2.5688999 8.5170221
-3.8563395 -8 2.491143
5 -4.6456003 5.3957338
-3.2218189 7.8555746 10
8 4.154356 8.2737417
5 -3.0311043 6.3563871
-0.75621229 -0.25123993 19
5.8392301 -4.2994518 0
7.014308 1.2097898 0
1.1941321 -8 0.098949216
-7 3.8078144 16.901669
2.8795605 8 8.9856148
5 1.0499215 2.2238767
4.3110652 5 4.0606184
2.9441171 -8 8.1193533
2.1248724 5 16.436796
-6.4078999 7 11.478532
1.6029911 -5 6.1618552
6.4497786 6.6418495 19
-3.0724268 7 14.668797
0.48608756 7 11.29435
8 5.2994604 3.4205792
5 4.5590782 3.6152267
0.14738297 5.1648378 0
-3.8660002 5 7.6291952
2.0413151 8 7.8722343
-5.7745266 -7 10.41654
1.6435127 6.5797567 19
1.6760099 5 3.9010808
7 6.9464741 17.451286
6.118526 -8 9.2277498
7 -0.38754892 13.213884
5 0.26049924 13.791635
-7.9143796 -3.9752007 0
6.1353054 7 10.37952
-8 6.0238895 5.6816716
1.1201768 -7 14.503379
-0.74921513 -5 9.5147038
6.3833818 8 3.0359073
-0.30176711 -7 10.686194
8 6.7634916 9.1253777
8 -2.5984588 4.9840903
-8 -6.7946773 0.5949555
-4.8427091 -5.2044339 0
-2.9021983 7 16.889894
8 0.11413193 1.1636509
-8 -6.181181 2.3690822
5 -1.9800855 7.6203141
-3.0411298 5 11.500608
3.2694321 8 3.6604185
8 7.8752613 3.1530368
4.2290778 -8 7.815237
-0.19052815 -3.6872227 19
4.9074063 -5.0020623 0
-5.5223298 -7 17.527498
6.3978119 -8 5.8984289
-7 -4.3473768 16.767841
5 -1.3128828 3.7471514
6.5572934 7 13.450855
7.9216542 0.17876303 0
3.5082929 -8 3.643971
7.0000005 -6.3660035 10.127338
-6.5004163 7.0000005 10.153542
7 6.6180358 10.235468
7 3.4826093 11.394912
-7 -4.5643024 12.757647
3.5612779 7 12.31493
-5 2.2268393 9.3411789
3.8745985 -8 0.62614155
-5.7783155 -8 4.013773
-0.67240083 -1.9776132 19.400131
7.5097785 8 2.7304869
-2.0308943 8 9.8247795
0.028537989 8 9.6034679
2.8292999 8 8.8186607
-8 6.0134501 7.9703679
-7 3.128057 11.220188
0.045411527 3.3953192 19.000002
-8 0.27276731 0.83778465
2.1305857 -5 6.088079
7 5.9446182 18.956909
3.1077423 7 16.72047
-0.19814217 4.4821653 19
5.2234988 4.0793896 19
7 -3.768466 11.276691
2.6370447 8 7.0422711
-2.8892133 5 15.677371
-1.2572818 -5 12.083965
5 -0.43808699 7.7156291
-8 6.689785 5.3760614
5.4122376 -7.462049 10
-7.336823 7.3098373 10
3.2072592 -5 16.040676
-5 -4.9295058 0.37924096
5 1.6684914 15.245912
-6.7948465 -8 5.2278304
2.7944889 -2.7113094 17
0.30154335 -8 4.0425601
4.4427471 -5 16.686804
4.1715455 -5 7.9997954
-5 3.4982681 13.079641
1.4847658 -7 17.670141
7 6.4481525 14.831306
8 -4.9875164 0.91790378
8 0.9474535 1.6318091
-4.2680922 5 6.8520961
0.98223662 -5 4.7080436
4.126605 7 11.767008
-8 -0.37494254 4.9534264
-0.53392947 -5 5.5490985
-2.2792616 5 7.5467606
0.73382711 0.066078901 17
-5 -4.8573074 11.050599
2.7264733 4.3769097 17
-5 -2.9917729 11.600238
-8 -4.9881291 7.6420736
0.89217824 -0.6317116 19
-3.4987488 -5 3.478231
-5 -4.8689208 13.287377
-5 2.6718566 8.9172316
-8 -7.529911 7.3064113
4.7458763 -7 13.927259
3.6890328 4.8890557 19
-1.7524689 -4.5368261 19
-4.7803197 6.7525496 0
-8 -7.4243789 6.9711108
1.83389 -3.679405 17
2.4608271 8 2.1214027
5 3.5499783 7.3691206
-3.9633331 5 4.2807703
7 -0.54217339 15.898458
7 -6.3122101 18.002626
5 4.6345539 4.0529108
-7 3.0316114 18.458984
-3.0918555 -3.8906317 19
-8 1.1440797 1.4619604
-3.5062068 8 0.031511188
5 1.5290051 7.3018556
7.1813984 6.3430061 10
-3.635694 -5 14.932789
5.8943806 7 11.755309
2.143913 -5 3.4815648
8 -7.5587873 1.0436108
-1.9187949 5 12.879121
-7.2968822 -5.5881453 0
7 6.1510096 11.870404
-5 0.17873836 7.3530531
0.91328526 -7 16.785328
-5 -3.7557826 10.544002
3.5698426 -5 8.2446537
-5 4.9924316 7.2211466
-2.439281 -5 5.2016697
5 -3.6696267 4.6790237
-1.4992161 5 10.415503
5 1.8370713 5.2108164
-7.7000384 4.0188274 0
0.53447175 -5 14.551111
3.7941074 5 6.3175168
6.2175074 0.89830947 19
1.8048178 -5 5.2947087
-8 0.16225004 2.5528548
-8 5.6046228 7.0218539
6.7872648 -6.7980852 0
5.1753659 -8 3.7101483
8 3.4827404 5.6686707
-5 -4.4716725 5.2140565
0.068851352 -8 8.68925
1.7789626 5 2.4217966
8 -5.7405801 9.705101
3.6479678 -5 11.671043
5 2.6864123 1.8740252
-1.3875096 -8 9.8944283
-8 1.2883446 5.7962894
-2.0766535 5 1.4440862
8 -6.4432235 8.5098228
-8 -1.6804357 4.150116
-5.5563726 8 7.5153356
5.4112949 7 18.761206
-2.7961998 8 1.9636339
5 -4.6223621 15.680243
8 -3.846034 1.6401718
0.26441145 8 2.083909
-4.6499991 -5.2014685 0
8 0.67055893 0.59477061
-7.175561 8 2.1317205
-0.60915089 7 11.676159
7.0000005 5.2211061 11.619146
6.9676638 -8 7.4062181
2.7954359 5 5.1624303
1.5232065 -5 12.662159
5 4.6745663 5.8528514
7 -4.7093964 13.561863
-1.8181 8 5.5875363
-5 0.81425971 0.27308476
1.8557063 -5 11.072873
0.74110055 5 9.4076967
2.5415139 7.8124042 10
2.253746 -7 11.304683
6.9999995 -3.2193384 10.067429
-5.6655846 -8 4.0028763
-5 -1.4941977 12.531076
0.7916441 -7 14.261318
4.6533532 -7.4324327 0
2.5636611 5 14.725862
-2.7212729 7 16.580986
-8 -0.16854882 0.14266059
3.3366945 -5 0.29303521
5.1544814 -7.8466182 10
-3.3622522 7 15.238096
-5 -1.9345187 16.705786
-2.3690257 -7 11.419659
4.2959461 5 2.1878054
5 -4.4128594 4.3424149
8 2.0540485 6.159409
-0.65612507 7 14.468384
8 5.1692581 1.5086393
8 -5.8323669 2.2693381
-5.6655507 -7 15.538202
8 1.6602402 2.4978659
-8 2.574867 3.652679
-0.12994719 5 2.1169806
8 1.6040113 8.245472
-3.4929714 -5 1.0811231
-8 -5.4474669 6.8199635
-8 3.6774189 3.0832226
-4.6182461 5 12.910076
-3.7874889 8 2.8972487
8 -3.1646259 7.4354391
-7.0325251 8 9.1119738
4.2476912 7 16.363338
-8 -0.16140735 7.3699927
3.9027951 -5 11.865008
1.9319751 -5.4139051 19.000002
-0.35884321 -7 17.775267
-1.3549594 5.0410347 0
-6.6309924 -8 6.4907527
0.80636281 -7 13.500783
7 3.0937767 17.202843
4.4092145 5 1.6579728
5 3.0777822 16.242968
0.7872777 -1.4616246 17
-2.1706605 5 5.3861332
8 2.9369822 6.1601553
-7 -2.3828669 11.615582
0.84641302 5 9.0826235
5 -3.1737707 15.622305
2.0933471 -5 3.6794691
-4.0063009 -8 6.4756589
5 0.46065933 14.875396
6.0062885 7.0000005 18.449169
-7 2.9979537 10.944256
-5 -1.1604581 6.6211977
5.9802647 -7.7573309 10
8 0.78447533 0.61895078
5 2.9858913 8.1702909
-6.5352097 3.6185992 0
2.8212991 -5 16.38014
-2.8941393 5 9.7164202
3.5971174 1.7952771 19
5.3973012 -8 8.8993988
-5 3.0439796 4.6857405
-1.1394913 -1.5411988 19
3.331286 5 9.6987343
-0.65366477 -5 10.428713
1.3348901 5 4.7872152
-7 2.5418901 13.366918
-0.43299556 6.604022 19
-2.3952789 -7 17.218994
-5 3.0696952 4.3124037
-5 -3.3587618 14.558854
-1.1236587 -5 10.004014
3.6438699 7 18.093222
8 -7.6831403 3.5004148
4.1500435 0.26667166 19
6.9174218 -8 8.9842396
-7 -4.6661301 15.644541
1.1421671 7 15.971933
-5 0.14576197 6.7146745
0.85012329 5.4207144 19
-4.0334702 -7.6311045 10
5 3.5149486 14.204331
5 -3.9329634 13.471554
-3.441329 3.2681961 19
-6.8234768 -2.386169 0
-3.7071791 6.6082139 19
-4.3187742 -6.2844362 0
5 0.48817682 6.0532198
-4.4856839 -7 14.100179
0.61052537 -1.6039313 19
-7 -5.5109901 10.39558
8 -0.22387886 2.1026056
8 -7.3090534 3.3053005
-7 -3.9776015 14.31595
-1.9925241 5 6.2452359
0.94822168 -8 6.5573101
-2.6692226 -7.3716106 10
-5.0191565 8 8.8669977
7 2.2595854 14.620078
-3.9666719 -8 6.4067602
7.8621464 2.1906242 10
-8 3.7091646 8.4571266
7 0.80774117 15.85397
4.5571442 7 18.737616
2.9392653 -5 10.372198
-7.211133 -6.3937836 10
7 3.5630491 13.681828
-8 7.6465974 1.6034756
5 4.2113609 10.705064
0.82213545 -8 1.6859596
-5 -2.7293375 16.397579
-7 -1.463937 12.574646
8 -0.28608441 9.4117785
-1.976558 3.3766141 19
7 -4.5136461 13.447786
4.5929132 -5 13.726705
0.80415905 -3.6515698 19
1.0694108 -5 15.083168
7.2639914 1.0890779 0
-8 7.1954699 0.0033026971
-5 1.8707232 11.246202
-4.0505695 1.0537703 19
-6.1781311 -8 6.7980189
7.8523502 8 3.3532434
-8 2.8889179 2.0809519
1.7866917 -1.2596716 17
7 2.0585945 15.064686
8 4.32687 4.4690266
4.3790488 5 13.678267
3.3774927 -2.2175589 19
0.63104117 0.70021147 19
7.2769279 -3.0674825 0
8 -1.5537188 6.1614265
4.5022478 8 7.7082343
5.5958529 8 3.5285342
7 -4.3803024 16.569078
-4.4954519 5 14.343327
8 -0.23298192 7.9687743
1.8018045 -5 7.0082798
5 -1.6932226 15.194007
0.71863878 5 15.018596
-1.5762271 -8 9.1519041
8 2.5472717 1.1884435
-5 -2.8359928 4.8767881
7.5544262 -4.4638782 0
1.1893044 5 1.7843482
-0.42024142 0.87026536 19
-5 3.1379819 13.481631
0.74480295 -7 14.351982
-3.0360639 -5 4.955296
0.57635856 -8 4.5791769
-0.47410202 -6.2523308 0
8 7.8734369 7.69277
-7 -4.3368549 10.965362
-1.4327046 3.8324656 19
1.0020227 4.3915696 17
-8 3.0632279 3.3959897
-0.54802322 0.9233709 19
-5 3.8823318 7.4707031
0.30069876 -6.3655267 0
-7 -4.877861 17.582066
5 4.9732542 7.7215285
8 4.000246 3.9662051
1.5592079 5 9.4754639
-2.5627346 -0.12818533 19.874352
-5.2532039 6.3893523 19
0.70587349 5.4019947 0
-0.88607764 -8 5.1442127
-5 -2.3449709 11.481243
-2.8202906 -2.3980119 19
5 -2.0620594 0.47862652
-8 7.0842409 5.0847974
3.4910493 2.5109901 19
1.8908775 8 5.0542903
0.22566938 7.4529719 0
7 -1.2228737 18.954844
-2.2006125 6.7601213 0
3.6650093 -0.96021724 17
-4.5170641 -7 18.393959
5 3.8854084 11.511282
-4.2674513 -5 15.157136
7.6216822 -4.083302 0
0.84958935 -6.1939397 19
-8 2.8847015 8.6829128
4.8414693 -5 1.8812281
5 -3.4873714 13.692955
5 3.2409089 8.5966635
6.7380266 -8 4.9602671
-7.6595154 7.6208153 0
6.5666122 -0.69020844 19
-3.6342854 -5 4.8881836
-4.0246134 8 3.9486063
-5 -1.3871781 10.872931
-7.968626 4.0239158 10
7.5775337 8 6.4272165
-1.8722839 8 8.2889004
2.8842592 -0.28369939 17
-7.6371322 -6.2772694 0
1.4394088 -5 15.930994
4.3489552 -5 12.693563
-2.5432758 0.84328043 19.195704
3.6359022 -7 17.811092
-0.93772143 3.8443699 19.018217
-3.9388027 8 8.0297346
-6.9999995 -5.7051458 10.131474
7 2.7365532 14.269976
-7.1868711 -8 3.7904725
3.6110952 5.6252394 19
-7.5054283 -2.0628023 9.999999
0.71936798 -8 7.5115643
-7 -1.3892033 13.076219
5.2392597 8 4.1101437
-7 0.32177973 15.226142
-2.7058849 -8 2.4087136
5 0.6552881 12.874045
-5 -3.5556531 8.8005753
-8 -1.6821562 3.6172833
5 4.37356 6.9449024
5 2.4482636 0.7877056
-8 -5.7167945 2.8424888
-7.9007149 7.1305504 10
5 0.038187504 5.1359949
-3.6416762 -8 2.5892804
7.2997317 1.7545546 10
-8 -6.0807791 8.6223879
-0.65901649 -5 1.2336124
-8 -4.4881787 4.702384
-0.86571479 -7 12.080745
-2.382174 5 13.941578
5 -2.4013596 4.5034308
-4.4940906 -7 16.143196
7 6.6752062 10.613903
5 1.7744266 11.293936
-6.4232926 3.0655208 19
0.94903111 -8 7.4890709
3.522048 2.5565507 17
3.8314822 -5 13.046372
4.4448862 -2.9453328 17
-6.0487928 3.8847511 0
4.4749799 2.0002642 19
5.0466127 7 15.561186
7.7544947 3.1989603 10
-7 -1.549747 11.644593
-5.6583009 -7 14.00502
5 -1.5185786 15.426065
6.7646523 -8 6.2522717
1.4041717 3.065305 17
-6.7754164 -0.92341089 19
-7 -3.9843585 13.596085
0.41193783 -5 15.606234
-7 -6.2692533 13.429303
-0.3860046 -3.6429949 19.245428
5 2.8020978 6.005877
-0.069246769 7 18.132416
-7 3.2735527 17.110607
-5 1.8444561 10.640162
5 3.7692716 2.2081027
5.0427589 8 1.4415896
8 3.0664444 4.1094246
4.0507679 2.6269131 19
1.2520027 -7 10.425726
-1.3966758 7 18.712656
-5 -0.62522018 11.113356
2.1418309 -4.4272251 17
3.8379216 -8 2.1804445
-3.182013 -5 7.2208276
-2.3693981 5 6.8532486
3.0936732 -5 0.1086154
-8 3.9908769 4.9475713
-4.5959997 4.3380656 19
0.12795997 7 13.306907
2.314573 6.8328695 19
1.821846 7 17.959431
3.8951654 8 0.5647105
-8 3.0449429 3.1038272
-1.568512 7 17.88348
8 6.8005896 3.4646811
-7.8535957 -6.5455194 0
5 1.3492929 0.89242595
3.6271014 7 15.627756
5 -0.086441278 3.071465
0.94772929 2.5439634 19
-5 -2.4722669 16.984173
-1.8531055 7 18.271896
1.8104503 -5 1.1167924
3.8380759 -3.3464267 17
1.4642751 -8 2.0247266
-2.0555429 7 14.01696
5 3.0555909 12.418641
-1.1093309 -5 4.4697113
-3.9506581 -8 8.8360672
-2.808742 -5 15.388526
-0.62212038 4.1320724 19
5.2920222 -2.9435537 19
7 6.7403049 13.150658
-5 -1.999989 3.494097
4.5101962 7 17.348495
8 -6.9256058 0.61143368
5 -2.257659 8.3327169
-8 -1.0033536 0.64446419
7 6.5572004 17.984842
-6.1071372 -8 3.3831363
5.9944992 8 7.7240043
-8 -2.4949188 9.9271212
7 -3.1063402 10.921375
-3.9126003 -5 16.050234
-3.9514122 5 14.128111
7 1.5629177 13.914127
-7 -0.63865674 17.182838
5 2.0717404 16.940155
-8 2.8879933 5.8666673
5 -0.41049194 10.240784
-3.1657128 7 17.503498
1.0998213 8 9.1338148
7 -4.1841211 18.284752
-5 -2.5786548 12.915428
7.7374797 0.48439932 0
-5 -1.0089676 13.767567
4.2231894 -5 14.118449
5.1570516 -8 4.006474
5 3.4296799 12.490786
-6.7901268 7 14.355055
1.6833222 2.3014045 17
3.5755639 8 4.1614618
5 -3.0212269 6.5435724
-0.21066141 7 13.461699
-8 1.54585 1.6529806
1.7313271 -2.5624504 17
-0.67383224 5 13.799419
-0.74496746 -0.88728702 17
-5.5657444 1.3508819 19
-5 3.4558024 7.8120365
8 7.4564657 5.7429371
-1.7204559 7 15.243715
4.3307199 5 13.6204
-2.9067457 7 12.221428
8 1.9826465 6.957572
5.7282772 7 13.293723
-4.7858844 -8 9.30968
5 2.2265682 0.42659959
5 -2.3665094 11.839136
-3.0140042 -6.5180812 0
-7 -3.6359968 11.421019
3.309303 5 0.024554206
5 -1.1356201 10.372068
4.3568368 5 8.1527624
7.9959702 -6.6123586 10
-8 1.4533947 4.4507966
-0.20245743 8 6.8611445
5 1.4013177 11.959073
5 3.7200193 8.9691715
8 5.6336641 9.7464151
5 -4.0889931 11.945793
5.0037174 7 12.172802
3.4085913 7 11.224749
0.27536845 -8 1.5206759
-3.7911596 3.2240772 17
-0.48353076 2.8281147 17
-1.020437 -5 0.5977819
-1.455687 -8 4.4575758
-2.5134192 8 8.9670849
7 -5.2215867 17.13419
6.9999995 0.9744029 14.41968
0.82632089 -6.8823013 19
-5 -2.1170259 16.922516
-0.27313894 2.009794 17
-8 -4.2690854 4.8929491
2.1379442 -2.6555459 19.326445
3.3039649 5 3.372952
-1.8185445 -3.7283847 19
-0.9140414 -2.5442657 19.948486
7 0.011766851 10.467175
-3.6016641 8 1.4964366
4.3473139 -8 8.2278728
-6.212842 8 2.4302952
-2.5121613 8 8.3139639
7 5.5705948 10.777366
-2.8631628 5 15.513454
5 -1.0562514 0.66353536
-5 3.6877623 12.637772
-3.87305 -5 12.885637
0.3591584 0.90342629 17
-0.063432932 -5 7.0526352
6.0506582 -6.5786467 0
