# .PCD v0.7 - Point Cloud Data file format
VERSION 0.7
FIELDS x y z
SIZE 4 4 4
TYPE F F F
COUNT 1 1 1
WIDTH 2054
HEIGHT 1
VIEWPOINT 0 0 0 1 0 0 0
POINTS 2054
DATA ascii
0.75571924 5 15.625931
2.0155435 5 13.665075
8 -4.125627 8.8752546
-7 4.235487 19.079506
3.3691325 -5 9.2023706
-7 -4.2378769 17.384296
8 6.0743952 0.98701519
-5 4.7137127 10.912173
-7 2.3111484 13.76736
-2.2192044 -7 15.343642
1.7162361 -2.3215458 20
6.1867495 8 9.649703
8 1.4566975 4.8268042
-1.9595561 -0.42951918 18
5 4.2512913 11.222754
-2.7883828 -8 2.1821818
8 -2.6075327 1.7838255
1.4404835 -7 14.42726
-8 6.5100489 1.4860959
-6.8468237 -8 7.2302251
7 1.8710823 13.934435
-5 2.8564663 4.6446247
7.8600316 1.2168431 0
5.1980095 -8 9.3985186
5 1.0876582 14.403308
-5 -2.3700662 2.6108623
-7 5.5405483 11.801083
-2.3511229 1.1679976 20
-7 -5.2543831 15.494555
2.5749378 -2.7859812 18
3.7444115 -4.1000152 20
3.9151926 -1.1929291 20
4.6677551 -1.4744952 18
-7 -5.6022959 10.926541
7 -5.03407 11.165509
-8 6.8804698 5.6550412
8 5.0555787 9.3128757
5 -0.24887139 14.960481
3.2498817 -6.3360028 20
6.3509789 -8 1.5671513
5 -0.57483435 9.7034645
-6.298821 4.9725637 20
-5 4.4696608 1.5406685
-0.063977003 -5.1166101 0
5 2.7038548 2.4103961
-2.6091475 3.6980486 20
4.8321819 5 7.5613647
5 2.3572872 17.566353
-5.0803614 -8 9.1677284
5.2396421 -4.6204777 20
8 3.0914922 8.5999966
5 0.61274898 3.6553547
0.72839785 -4.6861625 20
-2.4171154 -6.3138895 20
-0.27881718 -3.7955976 18
2.6766124 5 2.8420784
-4.3995099 -8 2.1070738
-7.8444924 -2.1357622 10
-1.1810515 5 16.331945
0.71613067 -5 2.3465338
6.2327232 7 17.06699
-7 4.0166559 19.309107
-5.4372687 -8 0.24399613
-3.1336982 -5 9.5703011
-5 0.207964 3.513813
-7 0.79982018 11.398022
2.6124263 -3.2564654 18
5 -0.91582501 7.8334956
7 -3.7423317 12.429821
-0.73076057 -8 4.8520937
-5 3.7534113 4.6021128
5 -4.9415774 6.359633
1.9198898 7 15.245218
7 -1.1914784 10.231544
-3.1385508 6.2085266 20.000002
-5 -4.0150366 17.216589
-7 -6.8601117 10.62615
-4.0555706 8 1.1282879
-5 -2.6578131 8.0184889
3.9435408 1.1245983 20
-8 -1.2117578 4.2384768
0.19465578 8 1.1786819
0.85824847 8 4.2708063
3.5577438 -2.4657428 20
-7 -1.2091444 18.922768
-1.3439733 -7 16.239824
-8 -1.0859628 3.164088
-5.3314824 -7.9723763 10
2.7019925 -0.7823053 18
-1.9090912 -7 11.040931
-2.3440857 -8 1.0648341
7 5.0056009 16.884909
-8 6.8094792 9.5918427
-2.5929863 5 3.1011229
0.13587332 7 18.093834
-4.5899653 4.5833073 20
5.5413179 -0.95142615 0
-5 4.1056271 13.542599
5 -1.14305 16.29097
0.30177307 8 9.3722401
4.1639099 -8 3.0948935
-3.3426697 4.853055 20
-5.8547649 7 11.662149
-3.99367 7 11.818312
8 -6.4672537 6.1721826
6.4187341 2.5041518 20
3.2915123 2.0043933 20
5 -0.96750695 17.994354
7 5.1815777 13.232129
5 -0.53821003 9.6711922
3.5521505 -5 14.54977
-0.66316128 -8 4.4082499
-0.085685015 7.13905 0
-7 3.8009963 12.440475
8 2.175561 1.861768
7 -3.4333365 13.99514
-7 -0.60617018 11.06574
-4.548758 3.0741689 18
-7 -1.2524108 13.131796
-5 0.58830738 13.317289
-8 1.0028579 9.8505678
3.6343188 5 2.1273861
-7 -0.52874827 15.756413
5 -2.2640901 14.9493
4.5281062 5 0.75381243
-6.7278199 -8 7.254498
4.1959238 7 10.355654
8 -3.9723735 2.9887381
1.2250073 8 4.6261282
-4.4436541 -5 2.7054794
7.4549026 7.7155685 0
3.8183923 5 13.571504
-7 4.3726082 13.520023
4.9415212 -7 17.918486
-4.7366629 7 12.996051
-1.9897087 -8 2.7943923
0.9594574 -2.7410688 18
0.898664 8 1.6080302
-4.6278763 -7 19.292583
3.6209416 -7.3305335 0
8 1.7129378 6.8452787
2.155123 -7 14.80548
5.2748809 7 17.728855
-8 1.5780218 2.9552701
7.5688782 8 7.8760195
8 -2.4651232 9.7936554
-8 4.2119026 1.009169
-5 -4.9829197 8.1187687
-4.0313406 8 1.3232076
4.9616041 0.41226417 18
-0.76238585 -5 10.819784
-7 6.8918681 18.615974
5 -4.7712421 9.2503014
8 -3.3644168 7.4130259
5 2.0753677 12.340221
-2.380043 5 16.137672
-2.4795344 5 2.9195187
1.6582065 -8 6.8841362
-6.4026747 -8 8.0519209
3.0026188 -3.9464488 18
-0.45349216 -7 15.848021
5 4.5204649 15.077127
5 -0.32785261 12.469044
5 -0.24272668 7.5435271
8 3.8180256 0.012214989
-2.0439463 -5.240346 20
-5 -0.17546463 14.819895
6.1115704 -7.0000005 15.256686
-0.21388412 7 13.184626
3.2825682 -7 14.042057
7.8290629 -3.8829207 0
7 4.1805601 15.528322
-0.91103554 -7 10.491798
-5 -2.1224461 10.812349
5.0804729 8 3.1452012
1.495896 8 4.0526161
4.7227268 -4.1858797 18
-5 -3.4228134 7.2194147
5 2.4248078 17.031139
7 0.76714897 15.430577
-3.7417593 3.0363832 20
-5 -3.1388123 13.23754
7.0918126 -8 6.4612918
-1.1400462 -2.0672312 18
-0.79292488 -5 14.97702
1.7757726 4.5382257 18
4.9344172 -5 5.0513182
1.6694555 7 17.592968
2.5319521 5 12.444626
-1.5321379 7 17.384708
5 0.72178292 9.1629133
2.8399239 5 13.048267
7 2.8824034 10.245186
-5 4.6837463 15.779684
3.3284736 5 11.442454
-1.0536456 7 12.141481
-5 0.2351861 10.92794
-5 4.202425 7.970099
3.2641335 0.99432629 18
-0.57730341 -7.4724078 0
-3.9940467 5 1.6953679
-3.1343141 -2.0405664 18
-0.80216694 8 8.58111
2.7646301 -1.9932549 20
5 -2.2412612 10.342061
-8 7.5230713 4.8373008
5 -2.3040414 16.770065
1.9384022 1.5021594 18
-7 0.10218835 11.728791
-3.3468928 -5 2.8656464
8 3.5611134 7.0808921
-3.2779331 8 8.4011641
-8 -4.3817344 0.63489586
5 4.7514391 14.276719
0.65070593 -7 12.019532
5 4.7061434 11.918184
1.5135658 -5 10.380568
1.2364805 -2.9946003 20
-3.2704401 -0.71534193 18
0.3771379 -5 13.628281
-2.2057209 -5 17.957619
0.78304935 -5 2.6213713
2.6401792 -7 18.550941
-0.94475746 7 13.111532
7 -3.6379943 10.525472
-4.8520575 8 7.5249081
-0.7528677 7.4960527 10
-0.29710364 4.8013325 18
6.3703766 -3.4088807 0
-8 4.4273872 9.6067562
7 -3.3585868 12.063557
7 -6.5455227 14.371456
-8 5.0223432 6.9532251
-0.94915199 8 5.8798709
-8 -4.1363525 1.4559729
5.3539495 -4.9882097 0
-1.4997796 4.4255762 18
-2.6702366 5 6.777257
-2.1004467 -3.2677941 20
7 2.6081753 16.656254
8 7.9526882 1.4223479
-5 -1.7062123 5.0961647
3.2835402 -5 4.9290538
-1.5878386 -7 18.575766
-3.7600069 -5 8.0132742
3.7836933 -5.0077119 20
3.2665949 -5 16.585314
-1.4513617 5 5.2573633
-6.0145483 8 2.2122755
2.0854533 5 3.7693717
8 -1.2087686 6.8755398
-1.8575091 -7 14.036114
2.0872319 -0.92196244 20
4.8741484 8 4.4603229
3.0850465 -5 14.966864
5.3369703 -8 7.9662781
1.8196592 -7 17.90304
-8 -1.9987249 0.55254221
-2.0064034 -5 3.1358466
5 -4.3040013 11.361288
-7 1.1086812 13.225039
-3.9737153 0.7568475 18
-8 -3.3596256 4.4916196
-0.73288751 -5 7.1670976
-8 7.9538908 2.65189
6.8721905 -7.3849335 10
8 4.445612 4.2107272
7 -6.9566884 12.199207
-5 0.48044109 14.901358
-3.3006845 -7 13.210596
-2.679688 7 13.016378
5.1319509 8 3.3041911
2.0631595 -1.2526819 18
-5 -1.6049176 10.651802
-5 -0.67457771 17.248789
-1.0127792 7 14.572418
7 0.36053598 11.99451
-8 -6.3180256 3.9629779
-8 -0.13932425 8.6859684
0.52427244 -5 15.330906
-5.0879259 3.1973143 20
-6.5229712 -1.6549584 20
6.4047141 8 0.3783226
-5 -2.9698052 4.4793963
-4.0067434 -7 13.940166
-7 4.4179044 18.576302
4.1250763 -7 12.768911
3.1458356 -8 2.1710985
8 -4.9791903 6.2912393
4.1497111 -5.682198 20
-6.6214051 6.9999995 13.025449
5 -2.1919317 16.515751
8 -7.8421888 9.4037485
-3.716109 -7 17.98267
1.817479 -5 17.20607
1.4601579 8 3.1527138
4.750442 -3.9439874 20
-6.9999995 -5.3661656 19.818899
-1.7598143 2.7141714 18
8 -0.6287899 2.0966413
1.4341497 5 9.5580997
0.72511482 -8 7.2096734
8 -4.3209343 3.0446095
7 0.62788916 19.377165
6.6335893 8 9.1347198
-8 -4.9448032 4.1891103
-5 -3.7674201 11.549231
7.0000005 2.9705834 15.071985
-2.5862515 7 17.352898
3.7626972 -3.4722743 18
-2.7926762 -7 17.774954
2.3764515 5.0000005 15.319144
4.1113963 -8 0.025092097
8 -4.6353593 4.7665658
-5.5981321 8 4.0009198
-6.0198078 8 5.3525686
1.169583 -5 6.4712572
-8 -5.4458833 0.98858774
8 2.7864399 3.8704026
0.88587058 3.8226705 20
5 4.4973207 16.900339
-7 3.0770888 18.511021
7 2.2161224 10.995391
7 -1.6553478 17.210405
5 1.0016557 0.091695406
-1.2044632 -8 1.8228852
5.8433537 7 15.128637
-0.0095219612 -7.4946003 10
2.8647876 -6.8914809 0
-1.618598 5 0.6708467
1.4645715 8 5.0682836
-2.4041259 -8 7.8174667
5 -3.7820315 3.8397844
7 -1.4632213 12.233007
5 0.40320992 1.3827294
5 -1.976447 6.667058
-2.5850852 7 10.030382
1.3486289 -5 17.548901
5 1.8729408 11.066312
5.0264173 0.67899537 0
-1.5660582 8 5.356667
-8 6.1949215 5.6883087
-5 -0.074553013 17.528316
1.5388672 0.32368869 20
-6.2959781 -7 17.279572
8 -4.6401763 6.6244278
5 -1.563271 10.203464
7 3.1722181 16.445297
-7 -0.43338418 10.587189
-3.2436118 2.3680415 20
-0.21153307 5 15.472554
-4.7477345 -8 0.81134355
-0.089049578 5.747242 20
-4.4595776 5 9.9057474
1.7313809 -7 14.953691
-6.9999995 5.8575249 13.03961
5 0.89125234 16.831289
0.54183006 -8 5.8571415
-5 -1.8357828 2.4831183
7 3.0641022 12.034063
-5 2.1143627 13.40669
-8 -2.8896904 7.7529793
4.6239767 -0.82118201 20
1.4917364 -8 6.3777857
-8 5.5130701 7.5728621
1.3689282 -7 10.339819
-4.2957458 8 0.35118699
2.7827506 -5 14.565764
-2.2682672 5 1.7394937
4.3385429 8 5.5754328
7.6661105 -8 8.7295275
-4.1923723 -5 11.785784
-4.1893983 -7.8936758 10
-6.2999535 -1.1709106 20
0.7675162 1.2379334 18
1.5611967 5 4.3901939
-2.1719456 -5 11.752385
3.0925481 7 15.061922
4.3949242 -5 13.523523
3.945574 7 15.031014
-8 -5.7980957 5.7826548
7.6662531 -8 2.3050792
0.48399234 -5 17.037865
-4.2785592 5 6.0157108
4.1040154 -7 10.919556
4.6425734 5 16.400513
-7 -0.88441062 13.54361
5.88695 2.6579385 20
7 5.6558094 18.714624
5 -0.41033947 10.877707
3.3906987 8 3.4394174
1.9340717 -7 13.585456
7 -0.25718451 18.585155
-7 6.1942687 13.161029
-2.5634322 8 2.7226651
-3.8326092 5 10.710358
-5.2333946 -0.024349689 20
-2.1376548 -7 18.301191
-6.7277298 -4.178122 0
-3.6860409 -8 2.2560842
3.2797048 8 7.6233811
-5 0.035078049 5.2956657
-7.8872857 -7.9416833 10
0.79146385 5 10.919024
0.82336736 -5 4.9224544
-1.6299105 7 19.561863
-7 4.7634659 15.19475
1.7806427 5 9.3919506
-7 0.66012067 14.274271
5 -3.9853067 2.0160141
3.0946112 7 15.039618
5 -3.8413653 16.939592
-4.799408 -7 11.659403
-7 -1.4879888 15.420536
-6.4702182 -7 17.360172
-8 4.3568711 1.1142092
3.056118 1.1230531 20
-5 -3.3035698 8.1581573
-8 -1.8158889 2.1562786
-5 1.89008 9.3884163
-8 -6.5759406 1.6132877
-5 -1.158035 2.1872406
2.7664685 -5 9.3517513
5 -0.25628138 14.34701
3.8836384 8 7.0839348
-7.9854803 -8 3.3112564
5.2780499 -7 11.283529
-8 2.6216216 8.4212952
8 -1.4663715 5.5000529
-5 0.70753145 17.491196
-1.7440319 -6.7945271 20
-6.5432339 -7 11.295925
-4.746769 -6.754261 20
-7 3.4026942 16.663282
-2.7763314 -5 13.792564
-5 3.4499655 15.095772
-5 -1.102725 17.103708
3.9646161 -8 1.8157704
-0.014173031 5 13.162443
8 -4.1265965 8.6613646
8 -4.2959251 0.078771904
3.0351663 7.8903193 0
-8 5.4613771 4.8850398
3.8599491 2.0983539 18
-5 2.0120311 15.52035
8 -3.4563398 1.4697583
-3.6810396 -8 8.1661587
3.6163998 -3.7731907 18
-3.9010146 7 15.268501
-6.6159735 -0.65060622 20
3.0060854 7 15.142316
-2.9247246 7 13.653959
-5 2.1928635 11.83252
-7 0.0790447 17.150343
2.1592808 7 19.309557
-7 5.9106569 16.536411
-3.3258598 -2.3308556 20
-3.220772 7 14.818388
2.9643703 -7 10.332685
-3.3902559 5 2.8249795
8 -7.0916543 3.325742
5.230257 4.5465746 20
-8 -6.6760468 8.4163513
3.0269282 7 18.892056
-2.8136921 5 14.529374
4.747313 -5 15.09168
-2.3959427 7 10.417622
5.4136672 -8 5.3101573
-7 -2.5300291 16.288511
7.5286999 1.5246763 0
-7.4456215 -8 2.3597012
-7.9049835 8 9.4449244
5 -3.9590414 0.99783808
-3.7206032 -4.1381111 20
7 2.4533446 15.844575
-7.3728981 5.0419388 0
-7 -0.72832167 18.225948
-3.3933229 -8 1.6843958
8 -1.5161459 2.8677461
-5 -2.1960855 5.9299169
2.5993633 -1.0014203 18
0.91006625 5 8.5734358
5 -1.3169203 6.9713211
6.3017769 -7 16.257324
-0.26834676 8 0.24530888
3.1518729 7 15.807364
0.026702762 3.5302396 20
8 4.774353 0.85887271
3.7573166 -8 7.1044965
5 0.60210705 3.893409
-4.2147551 8 4.6480207
-1.4484291 -5 7.352705
3.4056485 8 5.6069136
-4.9999995 -4.1313896 3.7962742
-3.8622816 -5 3.0308075
-1.0119325 -5.4108124 0
-0.54910707 -5.4434805 20
-5.7197676 -1.3968418 0
8 -2.9703138 4.9375801
-5 1.9043975 17.826641
8 -0.39477527 6.3975544
-5 1.1767272 6.7089882
-2.4213381 -5 7.0150967
-7 5.7641983 14.421338
7 6.3846292 16.039597
1.8192191 7 15.970994
5 -4.4615231 3.6630325
-0.69852161 7 18.828489
-8 1.0594031 3.7002461
-7 -0.28974962 10.322021
-7 3.0488257 17.736979
0.41466808 6.8054037 20
1.2520891 -0.92016232 20
-5.9459553 -8 5.7043314
-5.5822592 -3.086525 20
7 1.3021746 19.118176
2.3153045 -7 10.30078
-5 -3.1494048 2.8525829
-7 3.2489626 11.13253
-2.1860123 5 5.8064389
-0.029637337 5 3.4121878
-6.6426287 -7 16.511539
7 1.3190155 19.48863
-8 -5.4031844 6.7813067
4.7149372 5 10.391107
7 -1.8238304 10.727172
-7 3.585897 15.207727
7.8330464 3.651942 0
7 0.31084871 14.528784
-7 1.6099231 14.089338
7 6.8037167 15.44587
-2.2738047 8 9.7567215
3.2658632 8 0.6129694
-3.9558158 -8 2.1685822
8 -6.0281296 2.5563116
-7 -6.9863014 15.137865
5 -2.8348517 10.372945
8 7.2594538 1.5726738
2.8356106 7 13.592639
7 0.79542542 11.182203
-0.30405474 7 17.932037
3.056519 -8 7.022212
-8 3.791224 8.2148485
-7 3.1577964 11.522256
5.7622399 7.6751885 10
8 3.1720734 5.8954391
8 0.28819561 2.449297
-3.669796 7 15.293095
5 4.2442284 6.5701108
-4.8007536 8 6.563623
1.1806118 5 1.2835916
4.3872399 -7 13.691675
1.4763942 -7 16.119556
8 2.8615658 8.0978041
-5.5409961 8 0.45467377
5 2.1387537 8.2296486
-5 2.1332798 13.410003
6.9782248 -8 2.2204881
1.1546249 -7 19.052908
-5.4345417 -5.4394426 0
3.1311245 5 13.281088
2.2374444 -5 8.2690105
3.6332798 -4.0114594 18
-8 6.2237449 1.9802675
5 -2.1202333 4.2085404
3.719028 -5 14.969873
-8 -4.5773792 7.9292417
2.0548658 -5 2.9192111
1.4428387 -2.3935266 20
0.60018277 7.631639 0
-0.70268726 7.9319658 0
7 6.1842766 13.785048
4.4039936 3.6010089 18
2.7380893 5 17.004608
7 -1.7619814 11.743552
-8 -3.393465 5.9794998
4.2963228 5 10.224987
3.8877792 -8 0.59440833
-6.9462843 -7 11.267446
-5 0.37191629 11.964797
0.51152283 5 5.3636327
-4.1274581 5 3.066746
6.2983656 8 9.3323421
7.8127947 3.2181764 0
-6.5325155 -7 16.226112
-2.3717079 -0.47647035 20
-7 -1.8288424 11.497751
7 -0.1756835 13.994238
8 6.3411798 7.4189029
8 2.3342543 0.75103122
1.8125558 -5 9.4879074
-1.9607935 5.2485957 0
5 3.5098481 9.3906517
-3.1678562 -8 7.42873
-7.0000005 -5.4679208 10.021078
8 -1.3909882 4.506824
-5 -1.0387775 7.7953353
8 -7.1356201 1.4470863
2.7528706 8 6.1990881
1.5712441 -0.26859057 18
-5.5519938 -8 3.0822704
5 -1.5149534 4.5149288
7 -2.3300438 19.511856
0.2345705 8 7.114758
5 -1.6969876 8.2793589
5 -1.6283945 11.56609
-4.3842421 8 7.4112606
-6.644371 -0.074091688 20
-3.7835217 2.8665209 18
4.780324 5 5.361958
-1.887485 -8 4.5680351
-5 4.945158 9.4590321
1.0253916 8 3.1260591
-8 3.3929586 8.1873512
-2.189198 -7 16.79413
-2.3593066 5 8.7068653
-2.5596075 8 3.7512193
0.77796388 5 10.43185
-7 0.26558971 15.436855
-8 3.6973214 0.74768913
4.7967935 -8 2.6951172
-5.2722259 0.044379115 0
5 4.86555 2.1567955
-7.0000005 -5.1571536 11.042173
4.1726093 7.0844984 0
5 0.47787189 10.906927
-4.1437111 8 7.6416039
3.674762 6.962924 0
2.6953757 7.1301055 0
-7 -1.4329087 15.084517
-5 4.4519796 12.20666
-8 5.0422959 1.7495252
-0.40995452 -7 19.425556
8 -3.2781186 7.6453991
-3.3289413 2.7233295 20
-0.68544531 -2.5869882 20
7.9788122 8 2.8412719
-0.17320061 5 15.864223
-3.4664991 5 3.7794619
-2.4509268 8 4.0604572
-5 -3.3902507 15.055565
8 -4.3134651 0.2616027
5 -4.9862852 12.635581
7.7234001 2.6841624 0
-1.9829959 5 2.6149898
-4.0135031 2.5912004 20
8 1.0654275 6.8352284
8 -2.6865911 5.3835173
5 -1.7122999 6.878252
-8 3.914712 8.3753424
-7.0487909 -1.1689465 10
-7.6056356 -8 7.9426012
-6.0754991 -2.6349165 0
-5.5029788 0.42522335 0
7 3.1885922 12.717983
8 -1.540588 7.5072217
7 5.110714 14.7929
-3.8249998 -8 2.684752
0.12196293 7 10.790319
4.4548559 2.2338026 18
4.5597878 -5.9539404 19.999998
5 -4.214654 5.5785079
5 -1.1923766 4.3142204
-5.6359892 -0.17107713 0
7 -2.6102715 16.252804
7 -4.4271722 13.016705
-6.7573504 -7.0112662 10
6.6649084 7 17.135353
-4.0098629 7 19.463158
-5.8085809 -8 7.8569741
8 1.7364774 8.9768009
-0.78447962 0.73034382 20
-5.2137313 -8 2.8637109
-0.64365911 -5 7.9719667
-8 -4.437211 1.4070293
-2.8264194 5 10.896068
-3.4937987 -8 7.1298084
3.7718859 -7.1510086 10
-6.3642888 2.5267844 0
-4.5098772 8 1.5274364
-2.6709318 -3.6680758 18
-2.2314932 5 4.6377454
-4.5155945 5 4.8256216
-5.3243289 2.3653581 0
-7.496624 -7.6729097 0
-7 -2.9572744 15.433384
-8 4.4113379 9.0686617
-5 3.8721542 0.32798696
8 -4.3834281 7.9138012
-5 -3.6013741 7.416708
-1.0197983 7 15.944979
-0.91760612 -1.9549229 18
3.8988914 -5 16.664072
6.1508141 7 15.005093
-1.6942623 -5 5.2757797
-1.0764918 -5 0.89342773
-8 -0.38272816 4.495316
-0.56243706 5 13.907954
5 0.93805289 6.7023215
8 4.1369171 7.284452
5.4880104 7 16.255903
3.3397093 5 3.5780499
1.0539874 -8 4.9501023
-7 -0.55297923 11.820045
6.041049 7 16.835258
7 5.2697496 12.284345
5.2065587 -8 8.8491058
-4.3167315 7 17.285995
1.5378575 -2.3698673 18
-5 3.4940891 5.3574805
-0.047893524 7 16.543005
-3.4588737 5 5.0107546
8 -1.6876371 1.2217541
5 0.40553772 3.7372448
7 -3.6357107 17.078871
-2.4691095 -5 12.497807
1.9406649 5 9.2247086
0.091187239 -0.27925491 19.999998
0.099670172 7 17.312111
5.3909369 8 0.7428968
8 -3.4862797 6.2541041
-5 -2.250463 8.2398357
-3.7787688 -8 7.822341
5.0373216 -7 14.898891
-7.9480715 3.2785926 10
5.5230145 -2.5209441 20
1.9427927 7 13.254488
5.1435089 0.45458531 20
-6.2013302 6.7034416 20
-7 -3.1745062 10.376463
-2.2534904 7 15.440417
-8 6.0959477 1.8164372
7 -5.6804605 15.63778
0.40274239 8 2.2548747
-7 -0.86862195 14.175809
-3.2865231 -5 5.0087175
0.25480056 7 17.995911
-7.6526299 -8 3.8911297
2.619364 -6.4469919 20
-2.8902283 -6.707418 20
5 -3.8744235 2.9483974
5.7022223 -8 1.4495089
-2.7281356 -5 13.659437
-5.3163395 1.7712312 20
6.8847713 7 15.839033
-8 2.6042378 9.3816862
-2.106133 8 3.2703061
5 -1.8167646 13.483495
-1.6962843 -5 8.2114267
-1.3725374 7 18.127888
2.9193304 7 16.18152
5.9388828 1.1438274 20
0.57558316 -7 19.72945
-3.7111909 -7.9301524 10
3.552494 -7 13.836807
-0.22812939 -7.0000005 16.635885
-3.9593754 7.433219 10
5.2272253 -8 4.3457389
4.8880296 8 7.3483276
-7 -3.217936 18.030437
-8 -6.348052 4.3573198
3.1862998 5 3.5214875
1.7089746 -5 4.1495104
1.6666133 -8 8.5440397
8 -3.6447716 8.7753277
-2.7543645 -5 5.8573098
3.6791999 -2.7690527 18
-4.1861038 -5 3.3245955
-3.4382553 -3.7237067 18
5 3.9198191 11.281698
4.8827109 5 11.839824
-8 -6.6801686 5.16676
-3.1617765 7 10.344528
-3.9448886 4.0192113 18
1.729612 5.6600461 0
3.8701384 6.0180492 20
3.6470215 -8 0.021671224
-2.4211099 5 2.6215699
5.2663479 -3.6790876 20
0.59685397 -8 7.1943784
4.5615396 1.2724704 20
-4.7998295 -1.1228194 18
-6.4580441 -8 9.697731
-4.4477687 5 17.15974
-7.0000005 3.0191178 14.1238
-1.5215803 -2.9015715 18
-6.6517448 -4.2785029 0
-7.642642 6.9728675 0
-8 -7.275805 9.8097696
5.256403 4.7469902 20
5.5656528 8 8.3168716
1.9369402 5 17.934027
-2.4182267 5 6.1488194
5 -3.4376171 17.931833
3.0887599 -5 7.3520293
0.87318039 -1.7349936 18
-7 -0.11902595 12.692654
-2.0574789 5 16.146685
-2.5530844 -8 9.3087902
-2.1710348 8 1.1189699
5 2.4875064 17.673769
-5 1.7561522 1.4946545
5.3012266 -2.8959539 20
-0.89203835 8 3.4302604
8 -6.9171505 7.2214131
3.1450608 -5 11.826085
2.0859346 -8 7.1597853
5 4.5332975 11.089156
-0.87890816 -7 11.488966
-8 -0.35643876 8.2436008
5 -1.4923328 5.3012543
7 -5.7133551 17.60924
5.1143675 5.0855336 0
-4.5225177 -8 4.3637085
3.1325469 0.65427971 20
1.2256646 7.6719718 10
-0.53158283 -5 10.548274
3.4414456 5 1.6396202
5 -1.0240738 12.573663
-1.4785087 7 12.589098
-0.99556899 -8 5.7119141
-5 -2.3236804 1.4300498
-8 -6.4812889 3.2460964
-4.1470342 -8 4.6563153
-5 -0.82649207 10.600513
-6.6474266 4.7059326 0
-4.2940927 4.2412229 18
-6.6210508 8 6.1531129
2.0620723 5 13.624343
-1.8134594 -3.7770019 18
0.6844213 5 0.47427574
-8 3.7295775 9.2811861
8 5.5703139 9.0075884
-5 -4.9291978 16.862719
0.9367578 -8 7.8254423
-2.327529 -8 9.1765251
8 1.1499146 6.7144227
-4.066371 5 3.1718214
6.4334602 -7 18.98929
7 -5.1099052 10.664611
0.50501144 -8 8.2323132
-8 -5.0766444 8.4705181
-3.0569344 5 3.9441557
5 -2.2308373 14.74398
-2.6170206 5 15.863502
1.4552467 -7.9473524 10
5 2.0363507 8.6384697
-7 -5.3502493 11.67131
0.033268929 5 12.868781
5.7452874 -5.95542 20
-8 -3.2934115 3.4804454
-7 -3.6886573 11.838282
-5 -3.5122643 16.95747
-3.7339468 -5 6.706522
2.3880959 5 14.122409
-5.1610746 7 19.616167
7.420383 -2.8151736 10
3.4593081 6.9999995 10.539851
4.3089309 -2.4564171 20
4.4199581 -7.4820786 0
-7 3.6273742 10.7725
-2.1929886 -5.0797586 0
4.0997624 5 13.599999
-1.1079493 -7 10.870876
-0.38465071 -5 13.006929
5 -2.076648 16.74715
3.858613 -5 17.479364
-3.3152535 -3.3023086 20
3.599715 8 3.0268621
-4.3499413 6.4244995 20
5 4.0820465 6.5499616
-5 0.25231838 6.8397284
5 3.046181 8.0318117
4.9526634 5 14.139189
-0.7576251 -5 10.703262
3.0205667 8 7.390696
4.7891574 -7 17.465265
-1.776732 8 1.4834619
3.0673223 5 13.59699
-6.7777061 8 9.3472023
4.8653083 7.1669354 0
-8 3.6597958 2.1851642
-1.5035875 5 17.741175
3.6023273 -7 16.570185
0.94886971 -7 12.866561
-3.4198835 -5 13.424475
1.7524147 -4.4607964 20
-8 -5.819459 5.6447706
5 -4.4742098 5.7476606
-4.9669433 -0.90302992 18
-3.9763567 -2.4676495 20
-3.632298 -1.5364569 18
-0.75987244 -7 11.399467
-8 1.2336074 9.4935055
8 -6.8600073 4.9978013
6.4906206 4.4477968 20
-5 4.397296 0.63543463
7.0059862 2.9319911 10
-7 -1.7287304 14.969599
-2.4451947 7 11.388403
7 -2.507874 11.940552
4.3025198 -8 7.8691316
5.7017593 5.6764469 20
5 3.1582546 5.5819287
8 -0.33969426 8.2531214
7 1.3893967 18.684628
8 7.9139929 7.0731378
6.1046515 -4.3324947 0
-3.1277542 7 16.109245
-8 5.0824704 0.46663201
5 1.476145 2.003953
1.7349982 8 1.7136782
-4.641305 8 6.1097279
-1.0019927 -5 13.719379
5.0127735 -8 8.3913002
-2.4643703 5 7.4806595
-5 -2.3870931 5.5954432
8 -0.86172199 5.7940459
-8 -7.6553483 5.6595421
7 -6.2827473 14.339337
1.7753136 -5 16.064241
-0.48267221 7 16.542658
-8 7.746417 6.843123
4.8883128 7 15.532186
-0.88210344 -7.0234313 10
6.6135979 8 5.9595966
-5.4583931 7 17.235802
4.1581473 4.76158 20
-5.6172271 -7 14.131136
7 4.4749794 12.470328
-5 1.1377727 8.9995499
-1.2511942 -6.3662539 0
-5 4.827014 17.314077
-5 2.0998139 7.2757664
1.1019678 1.6437142 20
-1.7343197 -0.785043 18
3.7372949 8 3.8196719
-2.511441 5 10.244622
8 6.1364908 6.4799752
4.5975361 -8 3.1211939
7.7977147 -6.6411414 10
8 -4.1540432 9.0507574
-0.78127074 5 4.8388629
5 0.54819286 9.8524017
5.9039993 1.5373271 20
-7 -3.1153741 11.480674
-8 -7.6747627 5.9762735
7 -0.39461327 16.970678
-8 -6.3879805 7.2709522
5 -1.8051949 8.1413584
4.2102785 8 1.3746816
4.6092644 5.4904795 20
4.0197582 -5 1.0928349
-7 0.28206575 18.050652
0.38260591 7 12.418203
-7 4.2941914 19.88673
-8 6.1369462 0.224557
-8 -3.6864738 7.0155983
-2.2858806 -7 10.632456
-0.62843227 7 17.322361
0.1307987 3.2663927 18
1.1469438 -6.6861858 0
-5 -4.3262625 12.290963
5 4.0579939 12.159497
-7.4263587 -7.4351172 10
5 1.4090749 11.008789
-1.8699386 7 16.402325
5 4.4853148 12.244949
0.23217142 -8 9.3919172
-8 5.3370743 4.9685807
5.0210328 7 13.582972
5 0.25508684 5.1443505
-5.825242 -8 5.4007721
8 -7.4374695 8.6337452
1.3779676 8 6.7031164
-5 0.5883534 0.58080232
-8 3.1435461 7.1150165
7 -0.17532253 17.278172
-7 -4.306036 14.019753
-3.5395477 5 11.124226
-5 4.5872574 3.7710004
-2.019418 5 2.5205877
4.147841 -7 19.104115
1.5760462 8 6.6068611
4.2826824 -7 14.009716
-5 -2.3964229 0.15914512
5.5445938 8 9.6453695
7.9261436 8 2.9511583
-5 -1.5964737 0.97582197
3.8813303 -1.9598811 20
-0.85878563 -5 14.424507
1.3573895 -3.4444618 20
-2.9332619 -5 6.5579147
0.88247162 5 16.542545
0.14326954 -3.5291762 18
8 2.4994624 7.1395192
-5 -2.0224009 16.499161
-7 1.3203859 15.180109
-7 -4.7346406 19.432175
-4.1362677 -5 15.626873
1.2674118 -7 17.371935
-1.3180366 -8 6.5395923
7 -1.6587389 19.964748
-4.9439383 -5 15.05339
-8 -6.4119172 9.9345865
5 0.51096487 0.12280935
5.2546186 -7 19.477699
5.2189193 8 4.9584084
-7.0000005 -4.4227996 16.011745
7 -6.4364548 14.178036
-7 2.1396084 18.961432
-6.4876666 6.9999995 10.75379
-0.41437197 5.3078918 20
3.0512257 6.1645107 20
5 1.5392238 7.4300394
0.10536772 5 17.433281
-1.0123653 5 11.413796
-3.7181711 -2.9840188 20
7.1940699 7.259326 0
7 -1.2539182 12.934477
-6.0368233 7 14.263519
4.7100616 8 3.4120858
-1.6302061 8 8.4063253
-7 -0.67373681 10.784935
4.355113 7 18.153093
5 4.6265273 16.981155
-5.689847 8 4.5454044
-5 3.0659084 17.253927
-7.2954226 8 9.3843994
-1.9238176 -7 16.415386
-8 -3.2211106 9.8914938
2.9063129 -7 11.049047
-1.1445303 -5 8.026309
0.68690103 -7 18.849083
8 1.6426458 2.5023568
8 -6.4180322 7.7492638
8 1.0445147 0.21080272
-1.5449245 -5 0.8736738
-5 -1.5892954 15.55502
6.8593044 7 12.454659
2.7666721 -4.9358134 18
5.4354877 -3.4603274 0
-8 1.4433273 4.5683999
-2.8676329 -8 4.6502771
7 -0.11415803 12.696217
-6.0811548 -4.1006112 20
1.3441694 8 6.2473502
7.7335277 7.7044721 0
-1.2383437 5.8818231 20
-2.6115947 7 10.033203
-6.8232226 7.0000005 13.009809
4.7716961 7 14.916718
-0.27117538 -5 9.1206875
-6.6423168 3.8205719 0
-3.765831 7 10.551445
-6.3570786 8 7.190609
-3.4894092 -4.7884564 18
2.1352766 -8 1.6047542
6.9317722 -8 4.0287714
-5.9954071 8 2.4383717
-0.95664954 0.077951431 20
-6.9462252 8 4.1040254
7 -0.15376151 12.43811
-5.5076656 7 11.44321
-4.6238146 5 10.414036
-0.46263289 -5 4.7153397
8 0.91257477 8.2695293
-4.5907068 8 2.4512966
-4.7853169 1.7059314 20
-8 -7.5951943 9.5788746
2.9520485 8 0.97068608
8 -6.8614721 0.15799206
-0.65786111 -5 5.1712198
8 -3.6178522 1.6214595
8 6.2417536 9.2964859
7.2922559 -0.83054781 0
-8 -7.3780055 0.043172933
5 -2.6638422 2.5369263
4.3027711 5 2.5211077
6.8012195 -8 2.2488735
-0.20951724 -8 5.2085915
2.7678847 -7 17.50425
2.2645588 -5 9.4843826
7 3.2034626 17.472603
-0.6447134 -8 3.9819694
-8 2.5320647 0.64867735
7 -0.89657235 16.039797
7.0000005 6.8434606 12.404919
2.402308 -8 8.9788141
2.1526599 -7.0000005 16.002865
4.300899 -5 16.024809
5 -0.52701306 12.439379
3.2766721 5 4.2132397
-7 3.7534258 10.360062
-8 3.3500772 8.4855194
-5 -4.9887686 2.7239089
5 -4.1616216 6.3760247
1.7907954 5 14.711888
-7.6542139 -8 8.7627802
-7 -1.5443454 10.575885
5 3.9038057 16.906164
-7 -2.9916782 15.070648
-5 1.6856546 12.296247
-8 -4.1524677 1.5847152
-3.9864628 -3.4294021 18
5 -0.5957247 5.0068045
5 -0.58773541 1.9262024
-0.80025768 -2.7860317 18
5.9473243 8 4.6699386
0.50537491 -7.8171449 10
-8 1.0029291 2.0855894
-5.5507441 -6.4019613 20
6.1259813 3.6307759 0
5 -3.4667439 8.6419077
-0.34952211 5.8652592 20
-3.5604587 5 7.4056516
-6.3189492 -7 19.862078
7.4109716 7.5757046 0
5 2.867167 6.5196228
-0.21021152 4.5898676 18
3.319859 -7 12.670766
5 2.074007 7.520844
0.4786998 -5 6.2077422
7.3302603 -8 4.1622267
8 -5.0362916 7.8135734
7 -5.6675978 19.645874
-3.6277599 -8 6.8404064
0.22905314 -8 3.6963699
-2.9464951 8 7.9408832
-5 1.67278 17.632702
2.6748621 -5 1.2764236
2.7169847 8 2.2278941
7 0.63300753 19.204134
7.3620243 8 3.7566657
5.4848213 6.9737644 0
0.61005688 -5 11.963249
8 -1.7172014 8.3485794
2.1266959 3.2399843 20
7 2.6046119 12.407603
1.1412363 8 7.2087102
4.8353996 8 0.6728971
4.3904352 -6.9999995 10.419991
1.4796019 5 13.154655
-3.4033127 -5 10.484883
5 -2.7593987 13.691225
-8 0.28552544 3.4952114
-4.8981805 -7.8355136 0
-5.3875036 5.4423618 20
-7 -0.1164403 12.228244
7.5594954 -5.8108864 0
-5 2.0949881 0.78498924
-3.7783742 5 10.675249
3.4835281 -5 9.680583
5 -4.6696677 16.75963
7.5266266 5.8966393 0
7 1.2401617 11.537867
3.3975737 -3.1066835 20
-1.9413078 -5 0.87042618
5 -3.7126687 7.3408828
-6.6586795 -7 17.574707
8 -1.5528989 9.4634752
7.1190701 -8 1.8000592
-0.32085913 5 15.253798
-3.2502117 8 5.6221228
-5.5897684 4.3695383 0
-6.4102888 -5.3651762 0
5.4780264 2.1365438 20
-1.2120299 -5 1.2427704
-7 3.6730616 10.357807
-5 -3.3652377 12.436766
-5 1.5262432 14.915316
7 2.8813117 18.536629
-1.0367846 -5 12.684361
7.9376435 8 2.5247324
-2.6781847 7 11.126289
-5 -4.9155374 15.45933
3.3487065 -7 17.128294
-4.5295019 8 3.2227142
-4.7968864 5 1.6005861
-1.9503773 5 1.9174314
8 -5.6798067 6.5012908
-2.8144677 -8 1.7838619
0.65763378 5 12.060551
-7 0.84941471 12.241302
-7 -4.1873288 11.994325
0.57376218 8 1.1043781
-7.2451696 3.6790259 0
7 -6.2466969 13.514494
-5 -4.5162678 8.4182491
-7 -3.7324967 10.848526
-5.8027353 6.0353413 0
-3.2150962 7 17.870115
-7 -0.55033684 16.397779
7 2.6610405 11.072216
-7.9126749 1.4040954 0
-1.0166149 -5 15.016821
-6.8077831 -7.1954947 0
1.9417434 -5 14.533615
5 0.57645154 5.3181925
1.8825846 -5.7459741 20
-5 -3.7051525 6.522995
-5 4.8615799 13.304308
8 1.1864901 0.8312763
7 5.8496628 19.466148
-4.4662199 -7.3129301 0
0.93895036 8 1.0635239
3.8889084 -4.1616421 20
2.1844678 5 15.793784
-4.1152754 8 9.3107491
1.5476375 5 12.309983
-5 -3.6126153 12.439767
1.4687113 5 8.7188377
5.2560892 7 19.690203
-1.976016 -5 12.898337
-5 0.67012703 2.613096
5 -0.5983969 9.229475
7.6998038 -0.66295379 0
-7 -1.184355 18.132751
-4.2435675 7 10.601832
1.2652261 -7 18.710703
7 -3.3520136 13.761244
1.1792812 6.2131357 20
-7 -3.7805343 18.898077
-3.6912467 -8 7.1101446
0.98551083 -5 13.317359
-7 -3.4545269 17.207235
-0.54020143 5 8.6309233
-7 4.0890112 17.738712
-5 -2.6274779 11.051178
7.0000005 3.9178491 15.112967
2.4723246 5 1.4167295
-7.9891405 4.1042614 0
8 0.18335986 8.5326786
7 3.4485903 14.645915
-3.3371539 -8 5.2393484
-0.11383367 -7 18.095161
-2.0571752 -5 13.202203
5 -2.9583237 12.940187
7 -3.382086 13.019672
-7.9884272 -7.4844193 10
7 -5.9025655 11.117601
-6.0811787 7.9390202 0
-3.5262942 -6.058588 0
-8 -4.7029967 1.28386
8 7.6380053 4.0434623
5 -0.97441816 11.55125
7.8448629 2.4217827 10
5 -0.99121702 10.001081
1.5777822 -4.3840694 18
-7 5.7724195 17.516874
8 -5.1391397 9.1285343
1.3681258 -7 11.799429
-3.7767277 7 12.750988
-3.480731 8 2.1058984
8 7.482893 8.362957
-3.3271525 -5 7.1488338
5 -1.2868971 9.8413029
8 -3.9946828 4.6641798
5 0.8609072 3.4789758
1.8766567 -5 0.2673068
-0.81999969 7 16.580271
-7.2940021 -2.7205279 0
1.6053182 4.4695797 20
1.9379253 -4.6007934 18
-5.375948 -5.5008578 20
5 1.9899501 12.66741
-8 3.0649083 2.1889646
6.6714139 -6.9999995 17.689796
5 2.7130647 11.341132
7 -4.712244 17.310328
-2.3048444 5 1.1503239
-6.8558226 8 6.8550949
6.7735505 -5.1701722 20
6.4082079 2.3597119 0
-4.9346504 8 3.8926659
0.44882798 -8 1.6600288
-5 -4.8819084 6.1080141
-8 1.6409638 9.3296995
7.4587808 -8 7.5593491
5 1.8217508 6.4655094
8 3.6457267 7.5248013
5.4721732 3.0276902 0
4.3324041 5.277317 20
-1.3355405 0.02933836 20
-7 5.0242009 17.437157
-5 2.9410081 6.8110924
8 -2.4619515 8.1663713
-7 3.0856247 15.875549
-8 -1.0408821 0.98042494
-8 -6.1669836 4.1377144
5.391407 8 2.8567128
-5.2759857 0.49187535 20
1.3293419 7 11.700749
-3.7573175 -5.3062458 20
1.8131032 -8 5.9062157
-3.517381 3.2412188 20
2.6028242 -8 9.557168
5 3.1567185 9.529808
6.624043 1.2446613 0
4.8280315 -7 14.353214
-2.2069969 -5 15.055349
2.7631352 1.9883587 20
8 -4.3807321 2.4553084
-2.6997943 5 3.0203385
-5 2.580601 0.42043841
-8 -3.01057 9.1568298
4.0598917 -8 7.2345486
-7 -0.76054567 13.885344
-8 5.0744295 9.8772631
0.37161922 -8 6.3494587
-7 -3.8068874 10.999228
7.5770311 8 7.9936886
-1.021903 -5 8.1738663
6.8421993 1.3336318 20
5 4.334126 16.359688
-3.0192838 7 10.647511
-2.1306946 5 17.540453
-2.4893744 -8 5.7542157
2.7236371 -5 7.1331859
7 2.7936344 18.462521
-3.3141384 -5 1.1432744
-7.0000005 6.804554 11.940454
7 5.0448027 13.897491
-5 3.206027 10.079205
-2.1553712 7.0000005 15.355627
7 6.7036734 11.821774
4.1489816 -5.5799479 0
-0.58688891 0.91204405 20
-7 4.9131579 17.831335
5 2.7853937 5.6867847
7 -4.8483577 11.269135
-7 -5.9632344 12.725089
8 3.9169931 9.6398277
-5 -0.60950232 15.05429
7.2396584 -8 8.1777678
-7 0.35245013 14.810959
-1.1632409 7 13.076294
-5 0.23866177 6.1575174
2.1839187 -8 5.240685
-3.0934255 -2.0477874 20
5.1381006 8 8.697197
-7 -3.39519 13.997875
-5 3.718256 2.3297923
5.3265095 7 13.845007
-2.2476749 8 3.207696
-5.7385502 3.1907251 0
1.1065331 -7.3677969 0
7.7973523 -8 1.3353225
2.2018378 -6.3974438 20
8 -5.5624256 0.60055947
5 -2.9650145 4.9316177
-2.7138085 -8 1.1063589
-4.5905933 -7 14.508602
-6.9650874 -7 18.669685
0.58513033 -5 0.66705573
-5 -1.0276377 12.938682
5 -0.80198824 3.8472822
0.31657612 -7 12.205448
7 -0.18316436 13.924654
-7 2.3840725 11.425046
5 -4.6422591 11.58464
-3.6929283 8 7.5258241
-5.8242812 -8 1.3516841
0.80104303 -5 5.7374091
3.0853398 -5 11.660206
7.1473889 -1.2250142 10
5.9782186 -7 16.371149
-1.6540084 -8 9.6711731
5 1.4546645 0.49686667
-5 4.1932068 11.70564
-7 -6.0970583 17.301605
-2.0513442 -7 19.18696
-2.0872846 -8 9.5641537
2.7700877 2.1661708 18
-5 0.38403606 10.264196
7.9530158 -2.4995751 10
0.29278588 5 16.801373
-1.7133262 1.9203496 20
-2.9845138 7 11.316471
7 -1.5683936 14.178547
1.7179222 -8 8.651144
0.65722251 8 6.0621295
4.6724048 5 9.8168402
1.7486334 -7 11.928823
7 5.8113551 10.37029
2.2497749 -5 14.954395
-5 -2.5370865 0.68469071
4.6018658 -8 7.2457108
-6.8249302 -7 16.482954
6.5600343 6.9596238 0
4.3039889 6.8032117 20
-6.9291077 4.7229767 0
-7 5.6473198 12.495888
-2.198849 -7 10.453141
7.3690324 -8 0.062710412
-8 4.6751857 8.4417038
-0.17366052 -7 10.807899
0.16991711 -5 6.2779036
-6.0176916 3.9091403 20
2.0227897 -2.4391568 20.000002
4.2599525 8 7.9578171
-2.0785675 7.4098377 0
2.1108203 7 11.944354
3.973783 8 7.2850089
2.0753539 -8 0.28326628
-3.4197607 2.1715646 18
-3.975585 -6.92801 20
5 1.8585644 9.7080784
7 -5.261014 15.597329
3.8627508 -5 12.989142
5 2.1554685 9.5376377
-3.0977931 5 13.374048
-3.437732 -5.3764324 0
2.5987997 -5 8.7375011
-5 1.0257244 13.938335
0.46444488 7 14.306242
4.7117829 8 5.2701044
-3.5307829 8 0.064936876
-5 2.0148363 16.980007
-4.9868994 5 7.1792631
7.8614006 3.1648891 0
5 3.4879537 15.965703
7 -4.3820124 19.871929
-4.8522711 2.5255742 20
8 -2.8950226 7.4869967
-3.9186778 -3.2076273 18
5 -4.7802353 3.2907314
-6.7417555 6.0425282 0
1.8067459 -0.36429465 20
-2.9065418 5 14.807744
-1.6266592 5 17.613214
7.1625175 1.9802008 10
-2.7246387 2.9250448 18
3.2947252 -4.012372 20
-3.0274112 -8 6.4611912
2.6141262 -5 6.7529645
4.4601889 7 15.719135
-5 -0.91018289 6.4660001
5 1.6414833 10.849665
8 -7.072093 5.7295761
7.6025796 -8 2.9752402
5 3.8920331 9.000926
0.64415884 8 5.2490578
-5 -4.8624654 11.438272
-2.3512712 5 8.7512779
-7 4.9504023 19.482922
5 -1.4835452 12.017388
5.7817898 8 6.845345
-2.3911986 5 3.2682409
-0.94197512 -5.0487337 0
-7 0.84689093 15.12228
1.5021501 -7 19.988754
-7.5200901 3.3839536 0
-6.5719776 8 7.7288113
-5.5307169 -5.4236903 0
3.1304376 -5 14.202885
2.8601439 7 11.092944
-6.759901 7 14.412565
-8 -2.1655219 2.4606857
4.1928749 5 1.6956623
-3.2448187 5 11.439104
4.2422504 -2.4266384 18
-7 6.5834494 12.880027
0.28565168 -3.5525391 18
5 0.72634155 12.899169
5 2.5141242 8.1081352
-5 -2.9255598 2.5379448
0.90531898 5.4043465 20
-7 0.61180973 10.086283
4.9500709 -5 11.998038
1.0885785 -8 9.7742052
2.0537713 5 17.465439
-0.91515684 7 16.35891
-4.1324368 -7 15.617213
4.0146074 8 7.880033
-5 3.9193878 7.5934095
-8 -7.0750961 6.4445367
6.8176003 -0.91829574 0
7 5.1270676 17.371084
7 1.9946203 18.764465
7 3.2558315 18.264137
-1.6791937 -4.4355388 20
7.6223769 8 0.23486078
3.919651 6.9999995 13.522964
2.9730082 8 2.1794291
8 -6.5625563 6.3449001
1.9294878 -5 8.9782162
5 4.8512573 13.185211
5.996417 8 8.2846727
1.1014968 4.9999995 12.812305
-1.7905488 -5 0.010316849
6.1483517 -7 18.930534
-3.1802568 -8 3.0655336
-4.3923078 7.6521354 10
7 5.5957031 11.439292
1.8795748 -3.1895304 20
0.69904518 -8 4.4363632
-2.5877211 -5 4.9377871
4.3746781 -5 2.5891535
0.78325051 -7 13.219656
0.024477959 7 17.900089
-5.5393314 -1.3434128 0
8 6.3269615 5.2151623
8 7.635952 2.1152284
5 -1.5193688 12.04682
5 -4.0654907 8.8532095
-8 2.2259598 6.5918322
1.7786696 7 18.304195
-5 4.0739098 6.212595
0.78269422 -5 9.2250614
6.2861805 7.3713131 0
3.6094751 5 0.68099964
8 -2.583169 7.6270347
-4.2807922 -1.8438904 20
-7.9069648 -8 6.3545585
3.301136 7.5452175 10
8 0.24706459 3.9582989
7.7357202 -6.3793373 0
0.14915419 5 3.2230005
-7.8202453 -8 3.5160873
-3.5265379 0.26165783 18
1.9513237 -8 0.98030514
1.5185747 5 13.420169
-4.8457589 -7 16.837435
-8 -2.1406465 1.3795516
3.6577854 0.31947649 18
8 -5.3800154 9.1231661
3.4529443 -8 3.0439315
-8 7.4908562 3.8644471
5 -0.055809975 9.5547791
-0.036763191 -5 12.863235
-4.2292104 -7 15.822006
6.0787945 5.0884943 0
-7 0.82968223 12.590527
4.3406549 8 1.8032235
8 -7.6269073 2.0787249
-4.9571743 -5 1.7226607
-7 4.6950278 12.930832
-3.8565974 5 5.3207893
5 3.1005521 1.7112956
3.9288969 5 11.04175
6.4322796 6.5231943 0
4.9339647 2.2259901 20
-7.4984403 -4.5326896 10
4.6517844 5 15.256541
-6.3972712 -8 3.3888783
-3.5490699 -8 9.146759
0.67339921 8 9.0006733
2.7743483 -5 13.390667
-1.5171437 6.1011586 0
5.275878 8 1.7979008
8 7.4589996 1.8307108
5 -1.0422547 9.5136671
7 -6.3117552 10.044539
-3.4509592 5 16.213037
-6.3589611 -6.2367725 20
-5.0000005 -3.0421808 17.222942
8 0.12629318 5.0239983
7.1615605 -8 9.0458546
6.3956327 1.5520904 20
-5 -1.596683 7.3068333
-0.96702003 5 14.70712
-8 -4.0433545 6.8547688
7 6.7892294 13.616264
7 -4.9088564 10.846066
8 -6.9821362 2.003463
8 1.5591078 0.66927487
3.1744409 -8 5.1357789
-8 -4.0296335 8.682435
-0.879287 -8 8.4399433
-8 6.3276625 4.9481621
-5 -0.37764168 13.783269
0.1792202 -8 0.18741006
-6.2010183 -7 18.54233
1.1349822 5 2.0647604
-1.2515444 0.99775976 18
-8 5.2051797 9.45051
-0.45326573 8 0.17650962
6.3405433 7 18.385017
4.9849486 5 6.7537127
6.1920366 -2.1435668 0
-2.1495862 -8 8.6414232
-5 4.1760845 15.265773
-0.64283514 7 17.62075
7 -3.2849276 16.74556
-5.061738 7.6536508 0
5 -3.9210711 4.3380771
3.552685 -5 8.5007381
-6.3578196 8 3.7214251
7 4.0042286 15.615936
7 6.3042307 16.199989
-4.229073 5 2.1246367
4.9213171 -7 16.376438
-3.8393354 7.3715343 0
0.092042327 5 6.0680723
-5 1.5519242 0.39223337
-8 2.9289179 8.6297264
-7 -1.2944841 16.370728
-5 1.8071253 4.0013237
4.807477 4.8671141 20
-7 -2.7393374 14.638346
1.6925992 -1.0521216 18
8 -7.5776224 0.869313
5.8371911 7 16.104513
-8 6.3905802 8.9191866
-5 2.9610262 15.929985
-1.1491235 6.4948421 0
7.9735646 -8 2.679271
2.5636044 -7.8491106 10
-8 4.1559935 5.7806268
7 -5.978806 17.539797
3.8216014 -6.1875949 20
8 1.9846401 3.9127121
8 3.9263225 7.882205
-6.4999437 7 17.722523
-0.82377636 -7 17.323301
8 6.4227657 0.86718637
-6.1356692 3.9173837 20
5.1148663 -6.7923789 20
5.6161637 7 18.233328
-7.1643534 -0.10805035 0
0.76511765 7 13.368526
5.1894031 7.8412957 0
2.7346277 -6.9026532 20
-2.2935543 -5 3.5257368
-4.5470414 -7 13.147456
3.367414 5 8.5455236
0.20948982 5.9290943 20
-1.5152652 -8 4.7927389
3.689328 2.0768876 18
-6.9072409 7 17.24799
6.1314783 8 2.8234391
-4.2453728 5 15.9751
-4.6064887 4.5160098 20
-1.4659722 -4.0742764 20
5 1.7723899 3.9883966
-5.5856781 1.1701159 0
7 3.6956053 15.995647
-5 0.85448354 3.0641246
5 -1.1927415 8.0255489
-2.3070211 2.8197708 18
-1.1755571 -5 6.4499607
-3.731672 5 9.1351471
5 2.7189198 7.2979794
5 -3.2335987 0.7797209
-0.83620715 -7 13.564561
6.8765006 8 7.2846117
8 2.1200762 8.8153305
2.6839607 5 3.6855409
7.0000005 -4.0471873 10.145004
4.6828575 0.3110458 18
-2.5688834 -7 11.08284
-7 -5.8295279 16.084698
7.5040169 5.5237389 10
-5 -3.5568707 16.268858
-7 -5.375483 15.548332
2.9547853 0.99235463 18
5.5611839 -2.44768 0
7.984827 -8 8.9076109
-5 0.49832797 7.8207669
-4.502079 5 9.9418459
8 5.7424202 4.6102271
7.9083099 8 6.3560848
6.5815954 -0.35412431 0
-5.9866996 7.0000005 13.3448
0.054986954 -5.1430354 20
5.1201792 -8 3.1258457
8 3.2883921 2.4089816
2.6573572 -8 7.7145929
-3.8899302 -8 4.7254868
-7.0233994 -8 2.5587816
-8 3.1977434 2.9914618
0.64435124 7 12.816298
-5.4731283 7 19.19717
0.3991884 5 2.4685068
-0.082350731 -8 5.0313396
3.5284858 5 7.5745778
-4.7871399 8 8.0567703
2.6883194 7 11.250682
-0.43764019 -5 0.98680508
2.2679193 -7.9967384 10
6.1758676 -6.9999356 20
-7 -1.641784 13.590259
-8 4.2930212 1.0396845
2.4797444 -2.0305052 20
2.9120979 -5 17.697704
-4.3965588 -5 5.181778
-2.0382786 -4.6471376 18
5 2.18437 14.331531
3.1399903 -8 2.590368
1.3996185 -5 5.8459744
8 1.5543318 3.2047529
8 5.9154835 0.75560915
3.2284527 5 12.791587
-3.9503047 -7.8543139 10
3.8035214 5 9.811801
0.87222075 -5 11.037663
-1.6242795 4.4011946 18
-2.9537058 5 17.099085
7 6.9918747 11.018404
-8 -0.69883955 8.1888914
-6.8811712 7 19.145601
-5.13169 -8 5.4363213
2.3668737 8 8.0932703
-7 -5.6504984 14.155831
4.7214117 7 17.417248
-3.8930137 -5 14.807347
5 3.3405156 0.64968038
5.4864054 -2.3696053 20
1.8722944 -5 17.210487
3.0799704 5 3.0605867
-7 1.3108714 18.35181
7.6843939 -4.9495358 0
6.0653882 -5.99999 20
-7 -5.3161693 14.963616
-5 4.5194283 5.3501825
-5.7763047 5.1177006 0
-8 6.1211433 4.998477
0.48251438 -1.7876289 18
-4.6647129 5 1.2364501
-4.0009794 -5 12.215403
-6.752636 -4.0104814 0
5 -0.75753784 12.066875
-1.8120184 7 14.535509
7 5.5327425 15.632105
2.3717334 -5 6.689383
-3.6752908 6.6651821 20
3.0166712 -0.28170753 18
-0.63071311 5 4.0992727
-7.4180298 -0.43562412 0
5 3.0356643 7.4739199
-7 4.3215265 16.372944
1.0843716 -5 12.003492
-1.17079 5 15.161451
-0.54404473 -2.0892084 18
7 2.7545271 10.604868
-1.1547395 2.4111333 20
-5.696866 6.9648371 20
-7 2.8504167 17.970713
6.5604706 -8 8.3612385
5 -2.9262118 10.115191
8 7.7505598 6.6516609
-8 5.7329659 6.8701038
1.6359792 8 2.6136608
-2.3229189 -5 14.534006
-8 -6.0418801 1.9747512
5 -0.60750127 9.7299242
3.7937219 8 0.45309246
0.36862063 8 4.7626495
5 -0.45973802 2.46402
1.746666 -3.639008 20
4.4293046 8 3.2225394
4.8892517 5.0000005 12.241113
0.48893014 -5 3.5415511
-1.575036 8 4.6012087
-0.81100416 5.7615671 20
0.44663429 7 15.772434
-8 -1.7877202 0.05117894
7.2140226 1.2571802 0
-1.2875309 8 7.8625746
-3.9179347 1.3240435 18
8 -5.6964006 5.2318072
-5 -1.671093 9.5556469
1.6645291 -5 1.0780506
-7.7474117 4.401895 0
8 -7.6673493 8.617732
-0.042564869 -7 17.643885
-3.768158 7 17.926086
-6.0903788 7 13.221235
-3.9907765 5 4.68155
7 -4.601263 19.723038
6.3802557 5.0541697 0
7 -6.30056 19.722134
-5.0939236 8 4.4974928
1.5105112 7 10.520719
0.54504776 5.7988772 0
-7 -6.7301788 18.10671
5 3.0771275 8.9858522
7 5.6614447 15.379438
5 1.3738786 14.725046
-6.9999995 4.7386341 13.902514
-2.2194042 8 9.6000605
-5.4520516 -7 10.568934
-3.8113813 5 5.4804411
-4.8465824 8 6.0510988
-5 4.5370789 13.424008
-8 -4.2677236 5.5244484
5.5811553 -8 0.73970097
1.4488726 -5 4.9384961
6.663414 8 4.7328181
5 -0.51403934 14.403122
8 6.6771231 6.5941424
5.5971155 2.4259694 0
2.1174357 8 8.9230576
2.9745841 5 6.7188811
8 7.5257082 2.5356176
-8 1.021148 9.9526701
7 -3.4932156 19.041132
-5.2467928 -7.1244678 10
-5 -0.94737071 0.6801964
5 -4.5012212 13.710979
-6.4643908 -8 9.8875294
4.1808882 5 7.2320085
4.2038598 -7 14.561401
4.6572881 -7.4857674 10
7 3.3822911 16.868057
5 1.6628132 13.912344
8 -5.3856654 9.0443707
3.0440831 4.567977 20
3.5078256 -8 6.3504748
7 3.7075584 12.076519
-4.943738 7 19.51284
1.5205979 -7 17.393744
-5 1.0088193 0.18173683
6.2377801 2.9079165 20
-3.9548702 7 15.249809
7.3134022 7.3952971 10
-3.2797465 -4.9999995 3.9517126
-7 -1.1130173 17.890585
5 -2.5124438 15.096745
-8 -2.6909132 4.5324154
-8 0.42282248 4.0328498
0.25418091 6.9552188 20
-7.7984657 -8 9.3327322
5 -3.0456471 16.212517
-1.7158995 7 18.250725
1.7360719 4.3767662 18
5.3477077 1.4612641 20
-8 0.36904991 3.0858493
6.7772846 1.7890069 0
-7 -4.3572502 14.369106
1.3725462 -8 6.3026981
-1.2339027 7 15.917446
-5 1.8660045 7.8268166
0.67753053 7 19.946259
1.6831934 -5 2.1083913
-7 4.105855 10.715377
7 4.7689552 13.116092
-5.3196449 -7.0357571 0
-5 -4.8991551 16.782742
5 2.1288314 11.249577
-8 2.702497 7.1324434
-4.6244125 -8 2.9454961
-1.66276 -7 12.006191
-5 -0.075202942 17.637497
-5 4.5937777 13.485266
-2.1072929 2.2598007 18
2.2117114 5 16.08835
-8 -4.7007351 2.2512035
-4.337461 5 15.009527
-8 0.72024655 2.0550585
-0.94283795 7 13.07996
7 3.7724848 19.281462
5 -4.3903098 0.80119938
7 1.9502897 12.208813
7 -0.88109255 18.867811
1.7885568 8 6.3439941
3.3363867 -5 17.572163
2.9003236 -6.6220322 20
-0.85373479 5 6.9332824
5 -4.3497906 17.519541
-8 -2.1762528 7.0233397
3.7941043 5 17.792286
5 -3.9520323 13.645627
-7 5.0348296 15.169666
-4.7328305 8 1.3452822
-6.7840619 5.816258 20
2.4181952 4.1950541 18
3.6060925 5 11.153777
5 -0.47498775 11.270797
8 -7.5815544 6.6763139
-7.0000005 4.4512076 14.196976
4.076272 -5.6646552 20
-8 -2.3036137 2.6029098
-5.0667634 -8 4.1206584
-0.92790949 5 10.53344
5 -3.615871 6.61691
-4.760026 5 8.5932722
5.4166732 5.2438006 20
-6.8304839 -8 8.9089336
6.0456161 5.8756762 0
8 -5.4488192 4.4326644
-1.9695063 -0.41862798 20
6.239831 -7 15.924981
-2.4004679 -5 8.0592833
6.9102926 -2.7962422 0
-5 -0.72485161 16.863031
-3.3993583 5 3.1322539
3.6461122 5 15.342781
8 -3.1808367 9.7759247
0.49315548 -5.115768 0
8 5.2615051 4.7848196
7 3.5388727 12.378936
5 -4.4566231 1.4303724
-4.6015677 5 15.51395
-6.4487629 -8 1.5130855
-2.7915611 -5 11.576775
-2.5447481 7 17.084015
-5 -2.1407454 8.6077986
5 0.0792799 4.8649869
-4.2568665 -5 1.5387534
5 -2.2506735 2.1304924
-7 -1.2838092 18.21645
8 -4.7625523 5.2280245
5 -0.53121829 10.377624
-1.758399 -5 6.6074133
3.4818788 -8 1.3871434
-5 3.6610422 4.5209188
3.8587441 8 3.6508579
5 0.66327477 7.9110217
-7 4.6463666 11.24131
-7 -6.7092524 18.153759
5.2205276 -8 0.74472094
-7 -0.53137779 16.417297
2.9739459 -5 10.619144
-4.3714085 -5 17.171108
5 -3.7522135 15.275743
-5.7264509 -7 17.476044
-5 3.6171207 6.8544998
1.8858873 -1.3821431 18
-8 -1.0642298 3.6001296
-0.39471602 5 9.0863686
-1.2853739 0.048401356 20
-5 3.5177536 11.271002
5 3.290719 11.363724
5.3944569 3.3594899 0
-7.0890055 8 5.8038697
8 -6.9412851 4.8555794
-7.3487272 8 8.623538
7 6.362812 13.611313
2.7569561 3.1908531 18
-7 0.083684266 18.884369
-4.6093287 -7 18.296831
-5 0.36065531 13.365547
7.5298824 7.7807546 10
-0.70474648 0.4699018 20
7 2.9836721 19.428421
-8 -4.2265482 9.1781807
7.3377204 8 7.6641583
-8 -2.8007336 0.65339291
8 -7.9614401 2.8381627
-3.3696909 7 10.655775
0.63570786 -2.0753367 18
5 2.3357368 3.9795432
8 -3.881748 2.1015506
-7.5979691 8 1.414835
1.8950195 -7.2578478 0
2.7400403 8 3.0096107
1.0792265 -7 13.828707
-5 3.1635182 4.3785977
4.2966146 -5 15.851871
1.5660573 -5 4.6365962
7 3.2118332 18.396385
-3.2905216 1.1677583 18
5 3.1208179 13.964446
-1.9496785 7 10.972818
4.6371279 -5 13.649689
8 -0.46520257 3.0082605
5 -0.70460188 14.423463
8 -0.16799831 4.6723523
-7 6.579237 19.619686
1.7313932 1.293902 20
6.7741566 -7 12.942098
4.1083336 8 8.4411135
-5.446804 -6.5140362 20
-5 -0.48821843 7.5325966
-7 6.8315759 10.725887
7 -6.5701032 14.520357
3.2370024 -7.1787329 10
-0.82949805 -7 10.371333
-7 3.2449093 11.160514
-7 1.0078627 18.193623
-3.7474267 5 5.2918468
4.2739482 2.2960372 20
6.231142 -2.4459598 0
5.7815304 -7.3554068 0
-8 6.4825797 3.121304
2.6262259 5 14.716576
-5.6005707 3.9275441 20
-5 -0.10324454 13.491089
4.7078371 7 12.100595
-5.1582909 -7 11.199772
-5.9066029 -6.5489006 20
2.2829182 -7 18.802235
6.3897781 -8 1.4179431
7 -5.2404146 14.489002
6.7089605 -1.1827335 0
-8 -7.578722 4.2375345
-7.3843303 -8 3.0110979
3.1568189 -5.7712846 0
5 3.6883135 8.9431963
3.7431619 -1.0903785 20
0.84590834 5 5.8066702
5.0000005 -4.7319608 0.94632286
-8 -5.9835215 3.1789539
-3.69646 -7 17.869816
4.766078 -5 0.93018365
4.821281 -8 7.7408733
-7.2458148 6.0859585 10
-8 7.9538169 5.5152049
-5.4910707 -8 2.0677476
-3.9932578 5 17.868191
-5.5741396 7 14.999355
-1.2176595 -8 7.7006345
-2.021847 -7 17.912172
-2.7393434 5 4.9022045
-5.1274281 7 11.937383
-5 4.0568991 1.9502965
5 -4.2590623 16.231796
2.0020461 -8 6.0315657
6.1611371 -8 1.5482603
8 -1.6683933 4.3396058
-3.2022762 8 4.5258403
-1.3780617 -5 3.8463414
-5.3890619 -8 2.8992817
0.025945477 -5 0.49017906
3.1334758 5 9.4779024
2.6689162 -3.0239978 20
-5.7331114 6.5479136 20
4.8649349 -4.9095154 18
-7 3.9494915 12.326916
-1.0680988 5 0.1260983
-4.3726282 8 5.9695101
6.3037982 -7 14.625341
0.30886245 -6.4928818 0
4.7422099 -5 14.358095
-6.9702272 8 6.5949287
-3.6853566 -7 18.826944
-0.23932469 7 11.643085
-4.6590462 7 16.601654
3.2437105 7 19.050404
-5 -4.786109 1.1482258
-5 -1.9595026 15.924804
-2.2544513 -8 0.84727609
-6.0560503 8 3.4957099
-7 0.4009093 16.739094
7 -5.0170093 11.950963
-7.0144234 2.4860113 10
-2.2265003 5 14.407954
7 -0.5477531 16.990679
2.0980358 -8 5.1142921
-1.3328732 -5 9.969492
5 4.2316294 2.2597826
-7 6.6043673 13.305386
-4.4094734 -6.1273351 0
7 -5.3889475 11.805289
1.7435551 5 1.5741847
0.53027153 -4.4004774 18
4.2781072 3.9021552 20
-5 3.1149807 14.270919
1.2297864 0.75802445 20
-7 6.2469907 16.781759
0.74450767 -5 9.8203001
-8 -7.4459867 7.5756807
