# .PCD v0.7 - Point Cloud Data file format
VERSION 0.7
FIELDS x y z
SIZE 4 4 4
TYPE F F F
COUNT 1 1 1
WIDTH 1971
HEIGHT 1
VIEWPOINT 0 0 0 1 0 0 0
POINTS 1971
DATA ascii
1.1677353 3.0310888 11.425926
-4.7300224 5 2.3426723
-4.7055588 -5 4.918541
-5 4.733078 0.52016729
-8 -2.1762528 7.0233397
5 -3.9095013 7.0352836
-5 -3.9520323 1.0969028
1.9744436 8 4.8303342
-6.885282 -8 8.6547174
4.15447 5 7.8766065
3.2231417 2.4181952 8
5 -1.1965424 6.07236
-5 1.2615538 3.6200099
7.5815544 8 6.4147854
1.2848394 8 8.1794338
3.8654406 5 0.76305407
-8 -2.3036137 2.6029098
4.3401828 -8 1.8332728
5 -3.22018 3.2576723
-5 -3.615871 3.951848
5 4.760026 3.8192322
-3.8690522 3.7455719 8
-5.0847783 -8 0.73094743
-3.958107 4.7114367 10
5.4488192 8 2.8381765
3.2941899 5 3.7607839
-6.0596123 -0.13463092 0
-3.0450819 0.78794122 14.47738
0.18449712 6.1136217 10
8 -2.1704011 9.368351
5 -4.8605008 1.2805134
-4.877655 -5 1.1809859
3.1808367 8 6.7639484
-5.3231082 5.7011456 10
-2.2709928 5.6224656 10
8 4.1937027 7.5277662
4.4566231 -5 6.9295774
5 3.2204294 0.3187457
7.1303005 -8 0.96952343
-2.3744802 1.9494572 14.223102
8 -1.7572913 7.0840158
2.1627612 -2.3161657 12.859254
-0.0792799 -5 1.7743597
-3.3503988 0.25911659 10.11173
2.2506735 -5 4.8536534
4.320889 8 1.7835492
4.7625523 8 3.2046194
-5 -4.765872 3.387723
-0.61543965 3.0310888 10.429184
-8 -3.4818788 4.210969
-3.2947836 -0.35544494 12.511621
-1.9826283 -8 6.3491421
-5 -0.6049881 4.5306201
-7.2962284 8 8.7586908
-5.3783007 8 1.8462391
5.2205276 -8 0.74472094
-2.2676754 8 4.6204443
3.1369762 0.62877554 12.026054
-1.8305866 2.8915086 18.910915
-5 -3.7522135 0.21255207
3.6887684 -7.7270966 0
8 -4.1197166 3.8080559
1.8858873 -1.3821431 8
-8 -1.0642298 3.6001296
4.5573015 5 3.684227
0.034572601 5 4.7344995
8 -0.3529253 6.2616682
-5 -0.39610136 2.9494562
-2.9279037 3.0676122 10
-5.6444759 -2.901407 10
6.9412851 8 4.1938825
-4.3025789 -0.77553344 10
3.1687527 7.0531464 0
2.7569561 3.1908531 8
1.6893721 8 1.1156321
4.7626433 -7.4877133 0
8 -3.5424647 7.4253044
-7.7132883 -8 2.1924539
4.8322535 5 4.2685151
-5.117589 6.0321159 0
-8 -2.9116371 2.3584075
-4.924933 -8 2.3358417
-8 -2.8007336 0.65339291
7.9614401 8 2.8140628
8 6.9507608 7.4069219
0.63570786 -2.0753367 8
-5 2.3357368 0.36272478
5.1952171 6.9557581 10
-7.4763956 -6.6671166 10
-1.0910211 -6.7707705 10
-2.0753369 -8 6.9903893
-6.851388 0.084789634 0
8 -7.0462837 2.4325545
3.2911541 0.36173156 19.509979
2.2007804 2.2503147 16.00983
2.7752509 5.4810843 0
-3.2905216 1.1677583 8
-3.1076546 0.67956239 18.120817
8 6.443491 6.3926277
2.1729469 -2.2985232 17.946032
2.3453655 6.5052218 10
-5 -2.6915669 1.589572
3.0882185 5.6783495 10
-6.9106259 8 0.3803134
-1.2367095 0.92421591 8
3.0345373 8 7.0579028
-4.0486536 -1.5118464 10
-3.5434563 5 0.27769393
0.28532839 -3.0310888 14.511782
7.031064 8 9.2741117
6.6438932 1.632226 0
5.1402674 -8 0.77285564
-7.8886003 -1.0593977 0
-5.5652905 8 8.8394861
1.7383621 8 1.8063784
5 -3.3126585 1.0020586
-0.44826019 0.40400565 20
2.5202012 7.1363692 10
-5.083221 -6.9323583 10
-8 6.4825797 3.121304
5 -4.4503503 6.1009808
2.8053885 5 7.200326
-3.0814342 -0.7249772 17.495049
8 4.6390486 1.6372589
-7.8148251 8 8.8002272
-3.8967879 5 0.25777134
0.97918189 -5.651474 0
-8 -6.3897781 2.4243317
8 0.81759739 1.2568469
0.2871964 6.8856506 10
-8 1.6412227 0.26329866
3.7979131 -8 0.38479352
-0.74237704 -4.3085699 10
-5 -0.03155756 6.9506507
-2.6736875 -0.77884203 8
-2.3800192 -5 5.4192576
4.7319608 -5.0000005 7.3649807
-8 4.9301519 1.2602988
3.8838038 -7.2920985 0
1.8813708 2.8035481 10.233921
-8 -4.821281 9.7275724
6.8401437 -8 1.733238
-8 7.9538169 5.5152049
7.2005329 -8 1.568081
5 3.9200304 0.80539387
8 -1.6305885 4.9993544
2.4613252 -8 4.2389631
6.0667467 1.7103987 0
5 -4.5372095 1.8085253
8 -7.0402713 1.9373822
8 -7.7753644 1.083498
4.2590623 -5 0.19311857
-8 -2.0020461 9.7802868
-8 -6.1611371 2.6975493
5.4528227 -2.8599224 10
3.0895689 -4.5210552 10
3.12605 -0.64770013 18.514917
5.9720869 -8 1.6318361
3.4523437 -0.082543127 15.246376
5 -0.26550162 5.7056208
-2.1599984 5 2.474905
4.0950794 5 7.534399
4.8649349 -4.9095154 8
4.2769346 8 7.8210654
-1.1381536 -5 7.9439564
-6.3339186 -1.4107063 10
-6.4632115 -1.8378701 0
1.323849 -5.5037541 10
3.145926 0.61327428 18.23451
-3.9908009 -4.5279551 10
5.4128323 -7.2897196 0
8 5.3710642 5.1709461
8 -0.11273026 6.6016536
8 -5.2264538 9.0504026
-1.8616331 -2.8377347 10.213891
-3.1696682 -0.57215142 18.847115
-8 2.2544513 7.2563081
-6.027801 -5.8947453 10
-2.7825499 8 5.2863636
7.414711 3.197473 0
3.0884094 -8 0.14423145
5 0.23091954 2.2187996
-2.7052584 7.5201721 0
-8 -2.0980358 8.8030195
-2.8582528 1.1115388 15.538607
-5 -3.744565 7.3853035
3.1635351 8 6.6946144
-3.4812756 2.7456613 10
7.4584131 3.8119218 0
0.86900806 -5 7.3003626
0.53027153 -4.4004774 8
-3.0557909 2.7872534 8
8 1.6692307 7.9282885
-0.87841904 0.54144585 8
-1.9902339 8 3.2182403
1.8005373 -2.9435554 14.255493
-8 -3.5670757 0.34625825
0.94286656 1.8623934 8
0.27518898 -3.0310888 10.09875
4.2836723 -5 4.9472036
8 -5.1265368 8.1571913
5.2728529 3.4563482 0
3.1836672 0.52489156 8
-5 2.8241816 2.1229463
4.986269 -5.5453787 10
-4.5375662 -8 7.9414349
4.0359879 -8 5.7421675
3.1447945 -8 7.9693274
6.5898452 -2.0176134 0
8 -3.8580382 1.5697709
-2.116116 2.3969572 15.917157
-6.8001118 4.8862305 10
3.4287946 5 1.3463826
-7.6060877 -6.0419588 10.000001
3.058634 -1.126871 10
1.2013408 -5 3.6545172
6.9323606 -0.49075413 0
-2.6186485 -5 1.9664116
1.1532078 1.4639091 20
-4.5950127 8 4.9456444
-8 7.994473 5.7890353
-5 2.3820696 2.7259111
8 2.3781776 1.3805559
-8 -3.833128 0.48716295
5.3918309 -8 7.7674398
-6.2795973 -1.9977324 10
-4.510674 5 3.3573523
-0.076741412 3.0615499 10
-4.052578 5.345407 10
8 -6.4065371 5.3057523
1.2802119 0.44331551 20
0.8883425 1.4482975 20
-8 1.3547772 3.7763174
-6.5001154 6.4546084 10
7.922452 -6.1977377 10
-7.4150386 7.8505602 0
-3.310771 -2.8419156 8
5 4.1831827 3.4491127
7.1824179 -1.5551391 10
5 -4.8640575 1.7123908
-8 -1.7296026 3.8596642
8 7.3793144 4.4252715
8 -6.5973082 1.0450363
-8 -2.2879779 4.7132368
-2.8317053 -8 7.3449268
-6.7922044 -8 1.7399371
-4.9477596 -5 3.8185735
-1.9034796 -2.7652545 16.025339
-6.8821874 -3.6548939 0
-7.6455841 -8 0.27201736
5.8967676 -7.2032537 10
-2.1613321 -2.3186405 10.747849
-8 -7.5532265 4.3375006
-2.0973666 -8 5.1706557
-0.78563952 -0.65775526 20
-4.2232485 6.0071888 0
-8 0.62416124 6.3723683
8 -5.0892649 1.2336819
-5.9909801 -8 6.8604956
-2.5008097 8 1.9739753
7.810081 -5.6427293 0
2.2639384 2.1409216 16.048407
0.20895427 -5 1.9033365
5 4.0985403 6.9366093
3.509896 -8 5.4418116
-4.7617531 1.1269659 8
0.26833582 -5 5.532423
3.2688987 -0.40027925 14.629317
-5.2374625 8 0.28805792
-3.8338411 -8 5.1668935
3.8113222 0.52076733 8
5 4.1344528 5.4238873
5.322701 4.8883867 10
4.3986473 5 1.8664956
0.86632848 -5 4.2643728
7.6357436 -8 3.9673588
-8 -3.5713832 9.9508505
-5.6569891 5.2508388 0
-4.9421892 -5 7.7987485
2.2529922 -2.1598809 10.915959
-2.6361787 -8 3.4140434
8 7.5524864 4.6436238
0.60412407 8 8.6984367
5 -2.3175011 0.52137864
-8 -7.6563549 9.511611
-3.4278533 4.6104879 8
-1.6190957 -2.2572646 8
3.0012856 4.3545303 10
7.5450797 -0.5674758 10
7.7882752 7.8971148 10
8 -1.7303641 0.34366611
8 5.1947918 0.26839945
-8 4.6109276 0.69187176
-5 4.6485472 3.0397546
8 7.9025269 2.6049509
8 -3.3621986 3.2549531
-5 -1.0067601 0.29992342
-4.7898607 0.72682977 8
2.888397 -5 2.3033714
-1.946725 -2.6903512 12.636088
8 -3.9849045 6.93964
2.0967634 2.4304771 11.20486
-1.5125258 3.0310888 11.953739
1.6879556 3.9063809 8
6.4977841 4.542604 10
8 -7.2124667 2.0635083
-1.7711966 5 0.083489522
-1.6598468 7.3989158 10
1.4883003 -7.2942533 10
8 6.5893345 4.3830581
5 3.6447074 5.1855478
4.2740078 7.0092545 10
-6.3602648 8 5.6068316
-1.3957431 -3.0310888 12.290274
-5 -4.2887831 5.8344431
-2.8334203 5 0.17278829
-0.992226 1.7748219 8
2.7112317 -0.058563828 20
7.6822052 -8 2.1782172
-2.7218351 -5 7.4749503
-1.150418 6.9040866 10
-8 -2.1371818 8.4873381
-5 -1.2812223 5.7308569
-5.9908557 -7.9912257 10
7.1669211 8 2.6930821
-2.3519392 -1.9884995 14.718117
8 -5.5933027 5.2973413
-8 -0.61340046 0.31695968
0.95920444 5 5.3692412
0.18496037 -3.4878826 8
1.4704026 5 6.0288019
-4.2769251 -7.4428062 10
2.4078681 1.891628 10.000269
-3.1392953 5 6.3579936
1.9663309 5 7.9590845
2.8147674 -2.8913193 8
0.1661495 3.0310888 10.522292
-2.2312591 2.8214276 8
-1.0702455 -4.5708861 8
7.0184612 -8 3.22927
2.6355207 -5 7.4846487
-1.6378793 2.8911986 8
-4.871398 -5 6.2228327
-4.417263 -5 3.5293334
8 -2.3372352 4.6104307
4.9374328 5 7.0102696
-2.2879331 -2.0993614 11.467443
-5 1.5029359 5.1732035
-3.9590559 -8 6.4935284
-8 0.85887718 7.2974911
2.6020246 -5.0529156 10
-0.047479153 4.3631225 8
7.4807591 8 6.3284278
-7.2665272 -8 0.24227634
8 3.81779 5.705565
-2.0455644 5 5.2681222
2.3286815 -0.69055891 20
1.562557 -8 4.8399096
8 5.7237725 8.7813587
-7.7128029 6.008574 10
-3.8020911 1.2085985 8
-5 -4.6758003 4.4136553
3.4801381 5 4.6544833
3.0678885 1.7418394 8
-3.8041158 2.0734415 8
-2.2613053 2.1454821 17.497675
7.195436 7.5590281 10
7.9678173 2.0224884 10
-5 3.0549355 1.1495061
1.5168498 -3.0310888 19.662546
-8 -3.904438 2.0262029
-3.194967 -5 4.1647987
-2.1411321 5 0.27883127
-8 -0.90250719 7.339736
-3.6892943 2.1716435 10
-4.3460679 0.9935236 8
-1.7564135 -8 0.93087685
-6.2728524 7.9563189 10
-0.525985 5.2277584 10
-6.6308241 3.2584257 10
-4.6192265 -8 4.966713
4.3466625 8 8.278698
-4.643177 -5 6.5118465
-5 -4.5792375 7.026618
-0.22190094 8 9.165143
-0.85422087 -8 4.7246895
-8 3.8779593 3.1328738
5 -2.2298803 4.1039863
-3.6903987 5 0.65116322
-2.8857713 -1.0638757 10.405368
6.4066706 1.95056 10
1.515889 5 3.940223
4.0238914 -8 4.7343349
-0.46809316 2.4463897 20
1.8482535 3.961596 10
-4.1621337 -8 1.3803706
3.9383717 -8 9.0142488
-2.0451412 2.5198894 16.595888
-8 0.44637918 7.544641
-0.57805777 -4.2168422 8
6.5168219 -8 6.1460953
-5.5527077 -6.549365 0
2.445559 5 3.6419137
2.3647399 -4.7128696 10
8 -3.8212137 4.1499877
-7.5265002 -5.7518201 10.000001
-8 -7.2475371 0.50681573
0.8637923 -3.7780123 10
-8 -3.6314368 1.6297307
-2.7080805 1.371645 13.336507
8 6.9774609 8.227766
2.7452786 1.3072157 11.503903
6.3900757 -4.6376505 0
5 -3.6721563 4.2158766
8 -6.0460453 1.1201919
0.33503771 -5 7.0640144
-3.7181997 1.1181127 8
5 -1.6910081 2.9408593
0.92035103 7.4332123 0
2.5762291 -1.6000181 15.477434
-8 6.8589115 8.0226574
0.63175362 -1.9978714 20
0.2174491 -8 9.7158833
-4.1586423 -3.1750402 8
-7.2793541 -8 5.744915
-8 -7.1208334 3.9468858
1.8874406 -5 6.5205507
8 6.05441 8.9559288
-8 1.5611024 2.6753469
7.4237041 3.6004057 10
5.5361595 8 6.0042243
6.6098261 5.8480659 10
8 0.2456131 3.936321
-0.40163016 -3.0538242 8
-4.4419622 5 4.7904744
-1.5035905 -5 3.1227641
-0.91187763 4.22439 8
6.2035713 8 1.0450149
5.1864362 -5.3963537 10
2.4182055 -1.8737231 18.813112
0.49310637 5.0395169 10
3.2735429 -0.39223522 19.409468
-0.89548731 7.686141 0
-4.0543423 3.9171972 10
5 4.0334759 3.3296587
-5 4.9741974 1.5426642
0.82272106 -5 0.17928076
-0.62368059 3.6985292 8
-8 -7.142252 7.6343336
2.4257755 -1.8606111 11.064009
-0.21316671 8 2.7568614
-4.1939092 -2.4896162 10
-1.844142 -8 2.0891244
7.695538 8 0.3547883
-5 3.7069635 2.3784876
7.1058464 2.0160782 0
1.4795854 3.0310888 15.38801
4.2984467 -8 2.6525667
7.5533886 8 4.267025
-5.8899589 1.2643027 0
-0.10847926 -3.0310888 18.941967
7.9077163 8 2.756557
-3.069155 -5 5.9809103
8 7.8012142 6.0985003
8 -2.940378 4.7438016
-5 -1.0217627 4.3349686
2.9930105 3.4966741 8
7.0604758 -8 0.8629629
8 -0.86543083 8.3806438
-2.3836565 -1.9335635 17.50135
1.1842097 5 5.202033
-3.2818429 0.37785938 16.267815
-3.078439 0.730165 14.114956
2.1695366 8 7.0849447
-8 6.7706404 7.652246
-3.0654306 8 3.9045773
-2.4724526 7.9329896 10
-5.8039432 1.2126818 0
5 3.116586 2.5578847
8 -5.3021159 3.2168272
-1.5659595 5.5595236 10
4.3471661 8 4.1180487
-4.9016614 5 2.2089295
6.907505 -8 6.3437676
-1.3800306 8 2.7285647
-6.5666113 5.6408286 10
2.6174164 8 5.3267527
-4.9561357 8 3.9731159
-6.6408048 2.5993977 0
5 2.4882307 2.1729236
-8 5.0770636 4.2407255
3.2261186 -0.47437674 11.943693
-8 -6.4635739 7.927474
-8 2.5921073 5.3959045
7.2314138 -8 2.8648758
0.52053761 5 4.8160605
-6.8400545 -3.6228361 10
2.8386323 -1.0549641 20
-1.5205312 -8 7.4309402
8 2.0454826 3.3200393
-2.4644036 -1.7937057 19.320148
7.4475918 3.9659238 10
6.5348024 8 6.1342626
0.27165937 6.2099366 0
-8 -6.9971037 5.2696104
2.342361 -6.8572226 10
5.7595668 1.8621018 10
-2.5046816 -1.7239422 11.899943
8 2.0522523 9.1935635
-8 5.7096701 0.55786294
8 1.2453985 7.7046928
-5.5710459 -7.3964128 0
-8 0.70783758 5.6489711
4.4999895 -0.055629015 10.000001
5.480988 -2.6024456 10
-7.5802355 4.1835861 0
1.6345134 5 5.3228436
6.6924028 -8 1.6870192
-5.6204133 -6.9890509 0
-3.3903337 8 1.8028611
-2.655539 -1.4626495 12.510761
1.5726898 8 1.6889793
-5.2498527 -8 8.7008486
5.6483693 -8 0.98487931
0.21201015 -6.4489007 10
2.3584356 -1.9772472 15.465794
-6.8128328 6.8552527 10
2.5676374 -3.296761 9.999999
8 -1.4683387 8.6855145
-4.7501163 8 5.4447184
1.9578713 6.32722 10
2.2758265 -5 1.8077526
-5.2931437 7.5300336 10
-8 -5.4736857 9.3292446
2.9037557 1.0327252 18.431866
1.2616296 -8 8.7630777
4.9254889 -5 6.8004823
5 4.3832092 4.2325234
2.6701527 3.3767104 8
-1.9250742 2.7278514 14.256437
7.1767545 -8 6.9519305
0.99776816 -5 3.2071648
-0.5680418 -8 8.0231819
3.5609376 -3.829402 10
-6.8521967 2.6421788 0
2.681994 1.3345454 8
5.7910843 2.1354389 10
4.4735241 8 5.3870487
3.1332555 -6.6600137 10
-7.0011387 8 6.416811
6.5152764 -7.4390211 10
-3.4626913 5.5967207 10
3.1068335 3.2451911 8
0.25400519 8 9.5589485
2.5376005 1.666925 12.658273
-8 3.6910305 7.9770379
3.5638394 -4.3534961 10
-3.0856557 -5.8360553 0
1.7668427 0.043544769 20
0.30095574 3.1110013 10
2.4828238 5 1.5267621
-8 -3.638319 7.0181332
8 -4.0947666 5.6786861
-0.46608537 -5 0.65466833
1.0916235 3.0310888 14.668547
-8 6.7200122 6.9773436
-2.8783221 0.65254545 20
4.1494722 -5.1764965 10
-2.6399879 1.4895846 18.476297
-3.7124195 8 7.573225
-4.1095247 -0.67389178 8
8 3.3279333 2.5267601
-4.3953762 5 2.6025894
3.1931725 1.439196 10
5 -3.6493614 5.0109143
-1.6710167 -8 1.6825198
-8 3.8891535 4.7130241
5 3.423981 0.2078677
-8 -0.55997062 1.5864813
-2.136302 2.361994 17.169107
-6.5527849 8 2.6825662
-0.27422261 -7.1160402 10
8 -1.5867949 9.0140514
-3.4894629 8 7.7806449
-8 -5.3397694 6.1417937
-3.4075303 1.6364256 10
-8 1.0612692 2.8680811
2.4178858 1.8742765 14.757412
2.1538153 -2.33166 13.985336
3.2999427 5 1.2936617
0.70637363 -3.0310888 12.384699
5 2.2820656 6.8791571
8 1.3729677 5.4676208
1.7327263 8 1.2760323
-8 5.4574065 7.5550303
3.8432045 7.5180893 10
-7.1284389 -8 3.5118232
8 -4.7373066 3.0657187
-2.1958141 2.2589159 14.214224
1.1799428 8 4.187027
5 -2.760746 6.141036
-4.0572281 0.48595893 10
3.1457205 5 3.3262451
-3.3758063 -4.9999995 1.765059
4.0071306 1.3975418 10
5.0535388 -8 0.010608113
-6.8049402 5.955493 0
3.9291272 1.1791811 10
-0.24953365 7.2009978 0
-2.5543177 -8 2.5914571
5 0.9067409 2.0142865
-8 0.036589265 9.5660248
-8 6.3716645 7.9509058
0.54972959 8 2.0818198
-6.0680089 1.2049307 0
2.3311539 8 0.017930865
6.7130747 -0.081852913 10
-5.5106187 0.048012972 0
2.3587632 8 5.7067709
-5 0.50749063 6.5258274
-2.9791102 -5.4439678 0
-2.5098276 -8 4.8345571
2.5787959 1.5955725 15.233974
8 1.1557417 7.7920494
-6.6384721 -8 2.2403526
1.8476017 5.7063875 0
5 -3.0507503 6.6854868
2.0735569 8 8.9820862
-2.9860225 0.89023542 19.360838
8 -0.15250111 1.0438646
-6.6126232 -2.9221258 10
8 0.94002402 6.3085504
-1.5021195 5 0.71423191
-1.5470686 -3.3017261 8
0.71651053 3.0310888 17.664398
7.7468457 -5.5053682 10
-1.4487681 -0.79472017 20
-2.720408 -2.678021 8
0.95034933 3.0310888 13.820547
8 -3.8149033 7.4917884
-1.8853564 -5 3.6522999
-4.338376 -8 2.4652486
-0.98963243 -5 0.25316
3.4187076 -0.14080226 17.499458
4.2014813 -8 7.7612734
-3.4245806 0.13062999 17.877546
3.3591821 -0.24390349 14.252681
-4.3539333 6.3588705 10
-8 -7.0581813 7.0974655
6.2093487 8 6.7605681
5 2.8565412 1.3837937
-8 -3.513905 3.1849337
-4.3206587 -8 1.7127593
-5 2.4161139 6.3820944
1.9540966 7.1595898 0
7.0180259 1.1042699 0
2.6894138 7.8446054 10
2.8817348 -1.0708666 19.3722
-8 1.3607206 2.8440394
0.54294527 -8 4.4492559
3.7956052 -6.5900731 0
1.1999321 3.7163956 10
0.71853614 -8 9.3640909
2.9314375 -4.7467856 8
0.54234171 3.0310888 12.381283
-8 -2.8577747 1.1289035
-0.43897456 3.2545261 10
-0.22476172 8 2.432466
3.3878758 3.7565422 10
3.4974766 0.004370796 18.410639
-5.9147863 -8 4.0661278
-2.3386374 -2.011539 12.804976
0.65106034 -8 7.7189775
8 3.2103009 9.4613314
8 0.31454372 0.24768594
0.3458724 -7.1124325 10
0.87986314 8 2.4089165
-1.2099609 -3.0310888 11.832712
7.4994516 1.5149314 10
5.9302034 6.5031567 0
-1.929749 5.3038888 0
4.3478022 -8 8.3362722
8 1.8572748 6.9665031
3.4602027 5 3.9146779
-4.7490063 -5 4.1737041
5 -1.5913413 0.64016289
8 3.8279638 2.854398
5.7860212 -8 2.8219888
2.5209663 4.534009 10
-8 -0.95460069 4.2248449
6.9921412 -1.7508633 0
5.5078335 -8 6.167604
-7.9114947 1.4585929 10
3.9359543 5 0.99594426
1.8979728 -8 5.4595723
-0.0095181167 -3.0310888 16.521498
-6.5221195 -2.260375 0
-0.97780609 -5 4.7087402
-5.4370446 -8 7.9429407
-0.42452377 3.0310888 18.069565
6.6793041 -8 3.2227564
-0.21904224 -3.0310888 18.911175
5 4.8289032 5.6977081
4.8179936 5 4.8254848
-2.1042304 8 2.8982573
-5 -1.3671864 6.8476267
-2.2167568 8 2.4536383
2.7679157 6.498147 0
-1.1641246 -5 2.0900793
8 -4.1012425 7.5393171
1.614025 8 3.9657712
8 7.9606247 9.5751276
1.2004315 8 0.90233386
-3.4809442 8 1.5902257
6.7511873 8 7.8173208
-3.452404 -5.732451 10
5 -4.7795911 2.8102136
0.50965935 3.0310888 15.705936
-4.9865584 5 5.0663481
-5 4.9303894 1.9442374
0.18974113 -6.8563914 10
-0.61887503 5 3.0353055
5 -2.9257467 2.248734
5.0576897 1.1804507 10
4.6269841 -8 9.6181955
8 -1.3603916 4.0617228
-8 5.869637 0.17839453
-8 1.9413784 8.4826603
8 4.5965929 1.0513321
8 1.5263433 0.71248066
-5 -1.5239753 1.8721528
4.2312231 8 3.0689902
-2.5642843 1.6570807 8
-4.9450445 8 3.0883498
8 6.5634375 0.6446225
-0.34996247 3.0310888 11.458128
2.4197407 1.8710639 15.467989
-1.6915073 -5 2.5673585
8 7.9470501 6.031961
3.0161974 -0.83797061 19.708382
2.0505559 -5 3.6818123
-0.063426852 -4.0683718 10.000001
8 -3.4273109 4.9354706
-5.8358927 -8 1.3736169
7.4826064 -2.8587079 10
0.088922501 8 6.0632629
-2.5152116 -1.7057033 16.005487
4.6082397 5 6.499701
5 -4.8001995 3.8977439
6.2596183 0.8523584 0
-5.4758692 -4.249651 0
4.7307787 -0.28350803 8
-8 -1.9423647 1.0364943
5.8602004 8 1.735602
-7.8878956 8 7.0582714
-1.4044075 -7.8456635 10
-7.6265035 -6.194582 0
-8 2.0565856 5.5561395
-8 3.6899862 8.5296717
2.4120629 -8 0.9889729
3.1432106 -0.61797696 15.917756
8 4.529192 3.3994317
-8 7.4938698 7.5539618
-2.3240585 -8 9.9315777
1.8911172 8 3.9284759
-8 7.8610129 7.6249495
-3.4312143 -4.9458861 8
5.0000005 -3.3634732 0.27775544
-4.1087427 -5.5244203 0
7.5033722 1.7234111 10
2.2443297 -8 5.6939216
8 -7.9962769 3.8333158
-8 4.0897493 3.9839139
2.6728477 -1.9780849 8
-1.8158975 -2.9169512 19.380825
-5.3763037 3.4371023 10
-5.1678324 -6.0274758 10
-5.4186773 -1.8994403 10
-8 5.7334604 3.9002371
8 3.5918689 9.4863224
-2.6740556 8 1.6301286
-2.6864867 1.4090463 15.599188
-2.7185354 1.3535364 17.73526
6.4637747 8 4.6516519
3.5252056 3.9931507 8
-0.29898512 1.7303123 20
1.8786874 7.9440899 0
-8 2.5781517 7.7831383
-3.1460464 0.61306554 13.076653
-0.87696862 -7.6262217 0
-3.9310303 8 5.7841415
-5.6390324 -8 5.2890196
7.9730659 8 9.3836384
-0.95142424 3.1523647 8
6.0624304 -8 4.2448592
2.2753952 -6.551549 10
7.1698151 -4.0700483 10
2.4313459 8 1.0267347
-6.6570015 -5.7206073 10
4.1334529 8 0.087579489
-8 -0.19644284 6.0976944
3.1804314 7.8216314 0
-7.6396899 -6.7234488 9.999999
-3.6523676 -5.3527155 10
8 -6.3158941 0.767003
-5 -0.23502588 3.9922743
-4.0107718 -8 7.5081358
0.78284615 -1.3739825 20
7.9989271 8 6.8759103
-2.207449 8 3.5085316
8 -4.072258 5.5318871
-7.7727041 8 9.1397018
-0.48186779 5.2133322 0
8 2.4447975 4.6455154
4.9012232 -2.2544732 8
-1.7900691 2.9616871 18.468718
2.7257776 1.3409922 15.139404
1.4417543 8 0.75436652
0.72346258 -5 6.4294276
-2.3158236 -5 7.779501
3.3996608 -5 5.1008196
-1.1844722 -8 7.2615309
-8 -7.4886985 0.5337618
4.8137574 5 5.8471808
-3.4932532 -0.011685981 12.610543
1.6625021 8 4.799788
6.5875335 -5.0035734 10
5 2.5277791 4.2180519
4.5605602 6.942358 10
-4.4865942 -5 2.3020973
1.8302002 -5 1.3363552
-6.1554527 -7.5797606 10
1.5767577 -3.0310888 18.656185
-3.357995 -5.6563287 10
4.0394063 4.7828522 10
3.0757687 2.9661272 10
-8 5.508729 0.47804916
-1.538548 3.0310888 14.819154
2.4693878 -7.1900158 10
-0.034160603 -0.00025390461 8
-7.2222495 -4.7592564 10
8 -7.937068 8.9991007
-4.9568701 5.7167325 0
-7.1408081 8 7.5463901
4.405128 5 2.7441883
-4.2439308 5 5.2686882
-2.6173973 -2.3209145 10
-7.7595811 2.3132432 0
-4.8513107 -1.3140752 8
8 1.7652426 5.9215403
-8 4.9803958 5.7057905
2.173774 -7.5258245 10
-2.8327098 6.3286095 10
6.2519937 -6.8167362 10
0.083012015 0.42733613 8
-5.2427998 -8 0.84556466
-3.367029 -3.9784977 8
-1.9698148 5 5.4026275
-2.8545444 1.1179618 19.80418
-1.6477954 3.0310888 13.315036
3.3573766 0.24703079 19.126104
-6.6762886 6.0694547 0
-3.4432688 -3.1092522 10
-2.3203049 -2.0432916 18.201935
-2.6881905 5 6.6468091
-6.3040466 8 6.0120344
-3.0192912 5.4304028 10
2.0753713 2.4675291 10.309751
-0.31109214 -6.1288128 10
-4.3331084 -2.3833768 10
8 6.5664997 3.3296423
-0.49430895 -7.3837419 0
8 2.7186985 0.69727975
6.8663063 6.2268486 10
-8 0.27060574 9.872776
-5 -3.0442848 3.1533504
6.4822173 8 1.835112
-4.0093646 5 4.669755
0.45812607 2.934134 8
-5.9526606 8 4.9946523
-5 -3.6127558 3.6454525
0.89745045 -8 4.2218947
-2.6811652 1.4182634 19.794239
-2.4084253 -5 2.175822
3.11006 -0.6753962 19.937996
-1.670699 -8 6.1718292
7.5309505 5.6204448 0
-2.1185384 -2.3927615 12.892667
3.9398522 -7.8470416 0
-3.4595757 0.070016764 17.000877
-7.854959 -8 8.4552507
-6.6749067 8 7.6098795
2.3333776 5 6.0019283
1.4382226 5 2.1375067
-3.2014773 5 1.7448304
2.3313549 5 1.7028106
-6.0756369 5.4534774 10
4.0378327 5.030869 10
1.3978612 -3.0310888 14.159135
8 -3.1210518 5.7328176
3.0079484 3.5482252 10
-2.3270917 2.1634459 10
-3.7803507 -4.4338036 8
-8 6.8543406 8.7498894
8 5.8612132 9.7497597
-5 -3.3277221 1.3788524
7.7283444 -6.9844818 10
8 -5.8409901 6.7691431
6.7092338 7.4817138 0
-2.6434991 0.83195657 8
3.6504517 8 1.6758269
2.2494805 6.7675486 0
-0.79433012 -6.2731805 0
-8 -2.4842148 3.2645071
-0.075332761 -2.2552152 20
0.41526699 5 0.84902656
-1.5580533 -8 2.0279
-8 7.6652126 4.5845704
-2.8951478 8 1.5705937
-5.5743899 0.62288499 0
-8 -6.265717 1.1699939
-3.3738899 8 9.1175089
-4.8482876 -5 6.591166
6.608552 -6.8274002 10
8 -2.8761737 3.7425041
-2.2835565 2.1069419 15.847744
8 7.0957441 2.8075018
0.39234096 3.2175016 10
2.3011727 -6.079587 10
-8 6.5584235 7.4148526
2.2448819 3.6548591 10
-7.2506342 2.8443499 10
-8 -1.9544348 9.9286175
3.2686384 5 2.5635386
1.9018406 2.7680933 13.11122
-8 -3.4394383 0.27604252
3.4638424 0.062626868 12.63682
0.97377062 -4.1261082 8
7.3028183 3.6167092 0
-5 2.9334836 6.7461424
0.13634425 -3.0310888 15.886377
8 -2.8589363 2.3506062
-3.8032577 1.9630444 8
3.7495873 8 7.2355371
1.9758427 2.6399179 18.214083
-2.3492546 -0.57122815 20
-1.1271915 2.1115551 8
-0.15733731 5 1.1362841
-5 4.6723804 3.1505311
5 -4.9779129 6.5616245
1.841621 -2.8723965 15.033671
2.2201047 -3.4279637 10
2.2381151 3.3211524 8
3.0465636 0.78537488 10.932747
-1.6770439 -3.0310886 11.241839
-7.4938002 -3.4721899 0
-5 -2.8402867 1.3442416
-5.623127 0.017398953 10
0.70881081 -2.8751812 8
5.9322066 8 5.7510319
-0.97621977 8 0.8478874
6.6460352 6.4181848 10
6.8255062 7.3411942 10
6.5484757 3.39941 0
-2.7472062 1.303877 15.344013
-5 3.6815519 7.3917322
8 3.6375399 4.3974862
-3.5532277 -5 2.4354534
7.5423765 -0.93466455 0
4.9007215 -8 0.8572312
-6.0085354 -2.8940904 0
-8 -0.015476704 8.4203777
8 7.8910675 6.0607319
-5 -2.9767992 2.620883
-5.4410505 -8 4.2718153
2.1282892 8 0.32473624
-2.8228951 -7.6804485 10
5 3.0021143 4.4386215
-8 -1.2761366 3.2342634
8 7.6067867 4.25456
-1.5273814 -7.6171594 10
-5 -1.0954106 2.6682458
-0.95606482 8 0.21907747
3.508198 3.3006027 8
-0.41901648 3.3651924 10
-1.1758561 5 3.5697577
3.0038033 4.7017503 10
-7.5116901 -8 5.3542643
5 3.6362257 4.5222263
-3.6872556 -8 9.3009653
-2.936079 -0.97673994 10.327131
7.8037233 -1.0104753 0
-8 -4.0979843 4.8545713
2.3677425 -1.9611275 11.032232
2.2856717 2.1032782 13.729219
3.177825 5 3.4768367
-8 4.5718627 5.9736838
3.3589907 -0.24423555 11.014431
-3.009095 -0.85027224 14.608536
4.9302673 8 0.74552536
-8 -4.5607843 6.908206
4.8815575 -8 9.8734369
-2.172631 2.2990704 18.599886
-3.5579591 -6.4396234 10
0.36970353 -6.3232908 0
8 0.48619175 2.6007843
5 0.25203717 4.4639149
8 7.7233505 9.9449892
8 0.15209985 7.4480519
-0.34398672 -0.099592775 8
-7.9999118 -8 1.698948
-6.2175078 -6.3322377 0
3.3833697 -0.20200974 10.319906
-8 -3.2384388 3.9826717
1.3627162 3.0310886 13.286033
0.98893547 -5 6.1478529
7.147162 7.7273722 10
3.5866899 -7.3354778 0
-6.693346 -3.6248031 0
6.5449066 -8 2.7695169
-1.2311987 -3.0310888 16.112907
-0.28183734 -3.0310888 15.520584
8 -3.7898281 6.2980881
0.6495955 -3.0310888 13.936011
1.4541624 8 6.6685753
8 7.7954187 3.4215419
-1.6203268 3.1627514 8
2.016284 2.5698714 19.478315
1.6014328 8 6.5134754
1.2731417 3.0310888 16.192255
1.1788294 -1.1272455 20
-7.0056586 -1.8530436 10
0.85170299 3.0310888 18.92779
5.5369215 -8 7.238071
2.809442 1.1960816 17.406492
5 -2.3783216 4.5116053
-5.8910112 -0.97075272 10
8 -5.2278404 6.1134877
7.5281472 -0.35857615 0
-0.12157339 -3.0310888 18.327492
-2.8689485 5 4.6453853
2.0013547 -6.1316619 0
-5 -3.5438991 4.0231881
0.50081086 -5.1139498 0
-1.5861 -3.0310888 18.330729
4.5798264 -4.0568385 8
3.3232231 7.0209684 10
-2.1421545 5 1.0136625
-3.966681 -2.4283431 10
3.367075 -0.23023313 19.626398
-5.9008026 8 3.8901637
-8 6.8853564 3.8596115
-7.3413582 -7.3974071 10
-1.3979826 7.1108937 0
8 -3.9301538 1.2699265
-5 -4.1135144 6.299242
3.0421872 0.79295534 13.24089
-7.4373436 1.3203509 10
-8 -3.0191188 6.5275679
-3.3262951 -0.30086568 17.991663
8 -7.0419297 3.6016572
5 -2.8815472 4.0860085
-2.8484573 1.1285048 12.18007
0.51469588 -5 6.8688021
6.0418534 -5.8520594 10
-5 0.72439539 2.2370443
-2.0035686 -8 4.3461843
-5 1.2644477 4.8331113
1.673048 -3.6265163 8
5.0833912 2.9602933 0
2.0338173 -5 1.6523366
-1.3244047 5 0.58742183
-5.1219282 -8 4.6262765
-7.5351562 -7.2444096 0
3.170599 -8 2.344038
5 -4.8164248 1.6483098
2.589519 -1.5769994 16.501373
-4.8145723 -5 5.3550491
5.9541082 -8 9.7819824
0.45177007 3.9142344 8
5 -1.1951374 0.78173959
5.5258846 -6.3110032 10
3.5816598 -8 2.6752203
-5 3.563839 4.7932901
8 6.8029003 7.5818152
-3.8747082 -8 1.1104709
1.0463185 -8 6.2820616
-0.90587008 -5.0846367 0
7.8038507 -8 5.9719167
0.70505929 -6.403861 10
1.046335 8 8.5926991
-3.2117047 -2.6147413 10
2.8646798 7.8085718 0
0.15772104 -4.0752063 8
8 6.4018068 6.090683
1.7994403 8 0.42261958
-6.8282671 4.8706789 10
7.9941583 -4.0236831 10
-5.2752028 8 4.7704363
-7.3427963 8 7.1974916
5 4.4181995 4.5024638
8 3.4220972 2.2142906
7.3009377 -6.7284503 10
-7.928792 8 1.1435298
1.184233 -4.4245543 10
-3.4929461 5 7.4357786
7.9287472 3.6035883 10
2.8688512 -8 3.0850639
5.2096 -8 7.0600996
6.1056662 5.6143575 0
-6.6788597 -8 1.4598341
-8 3.1437888 7.3779969
-6.8301477 8 9.4476871
0.041711569 -7.826128 10
2.9989746 8 3.0433404
3.6285589 -2.84043 10
2.7847054 -8 5.0316167
-8 4.9983377 7.0165138
8 7.1146049 5.3293543
-5 1.0307969 6.7389164
5 0.59858978 1.414946
5.5379114 -0.20565343 10
7.2921958 -7.7268295 10
-3.5410585 -8 4.8430867
-3.0245495 -8 0.69375455
8 -3.7286456 3.5240345
-4.4722681 5 0.15988564
1.021372 3.0846059 10
-8 -0.27335489 7.2892928
-1.7012789 -3.0310888 14.827046
4.4663639 8 6.1183958
5.9804668 -8 5.4722257
-5.9707308 3.403223 0
8 -1.5737362 4.5948262
-8 6.7150393 0.0011940203
-1.1180596 -1.1916466 20
-5.6500845 1.3743142 10
-3.329222 -3.6436679 10
1.385639 2.4757257 8
-0.46498379 -3.0310888 17.179045
2.19086 -2.2674971 16.356516
-2.3351622 -4.0557318 10
-1.3903313 8 9.2375288
8 3.7440152 7.6533914
-8 4.3099642 7.4750309
-8 -1.9451056 3.1848264
5 -2.4550281 0.525976
0.16943085 -3.0310888 12.879509
-0.29935551 8 6.4672322
1.839927 2.8753307 17.537855
-1.7395511 -6.2506747 10
-0.064689636 1.0873609 8
2.4238682 -8 0.94517171
-8 4.0604572 6.4900217
-5 1.2213407 0.69902802
8 6.8878717 5.2609763
5 0.73293442 2.2799191
1.7837986 -2.972548 15.978436
2.7508702 -8 8.815259
7.027174 2.2963943 0
-3.8027606 -6.7285252 10
-5 -1.1135639 1.4869642
-5.2993493 -1.4531112 10
3.9143333 -0.32059866 8
-3.0518003 0.77630448 14.851922
3.5805464 8 7.7178035
-4.1323438 -3.817471 8
0.948488 -3.0310888 12.245884
-3.3945851 -0.18258427 11.793735
5 2.5029674 4.2054238
2.1916766 0.56197977 8
3.396452 0.17935045 14.758982
-4.4233308 -8 7.0540981
5 1.3236067 5.6316981
5.9620638 4.144238 10
-3.3516121 -0.2570149 12.954231
4.6500821 -5 1.8388429
0.67339754 3.0310888 18.268778
4.1529894 0.34725147 8
-8 1.1467726 8.2596321
8 -5.2701845 3.5557296
-0.83847523 -5 5.6441965
-0.69540334 3.0310888 19.952394
-1.0854492 8 7.0971732
5 0.59206045 1.851503
3.3958828 5 2.6009564
-3.5813131 -4.89148 8
-8 -3.4370031 1.3072052
2.034776 2.5378423 19.936146
-1.3816047 -8 2.8284631
3.0386758 -5 3.3698649
-1.2443615 -3.797286 8
4.5580473 7.5209303 0
-3.575773 7.3083773 0
-2.3262358 -2.6528535 8
1.7862802 2.9682498 13.712089
-8 -1.7193329 3.6920021
-1.2532518 -2.732538 20
-8 2.4323545 8.2121477
-8 -0.28345668 8.7771692
-5 1.6097786 2.0213199
7.6958456 -8 7.2661991
-5 -3.0908937 6.2282805
1.7521884 4.4353409 8
1.606817 -6.1752234 0
8 -7.2437305 6.0810337
-0.58194292 1.5720463 20
6.3991432 4.818397 10
0.280056 8 8.6976318
-4.2713819 -3.0994935 10
-5 -2.2814775 5.9534392
-2.7771242 -1.2520573 12.540133
2.3222668 -2.0398939 16.461864
8 7.1636534 1.889263
8 -1.3165842 8.2923584
-5 4.5738153 7.2546597
5 -3.1954174 7.3528223
-2.0870831 5 3.108125
-1.1658664 1.4173346 8
-0.66116714 3.0310888 18.268106
-2.8334572 -2.5524521 10
-3.7835038 4.5829506 10
5 3.6676269 0.064746335
8 0.46553898 4.7033372
-5 4.3364067 2.287941
2.5270433 -6.0092573 0
-2.8159981 8 3.2167578
0.1729064 -6.4451041 0
-0.27534074 3.0310888 14.036833
-6.44664 -8 1.7361819
-0.24717784 -4.6512032 8
5 -4.7264967 5.3273206
-3.8448677 5 4.7347412
4.2030425 5 6.8838062
-2.5123434 -5 1.7164922
-8 6.3129125 1.3894454
1.8931637 -8 6.3657045
0.92270947 -8 9.2684555
7.0989695 -2.4046516 10
-8 4.7199211 6.6114783
5.7027869 -7.972218 0
-4.3487282 8 5.9081373
-3.2971258 8 8.7298021
2.5430627 -4.8883686 10
6.7227545 3.5830121 10
3.7760429 -2.1597924 10
5 3.7115331 4.814146
5 -0.31229293 2.0646832
3.0872827 -3.7299614 10
4.2377052 -4.6143975 8
-5 -1.1603615 3.5783467
-5 3.2718191 3.3040261
-6.8638344 4.8991833 10
-8 0.52490425 1.0328687
-5 2.9576139 3.8986967
-8 0.31035197 9.473525
-5.4363437 -4.6705513 0
-1.6090958 -5.8546176 10
5 -2.4094775 5.3095932
-8 -6.0285101 9.1891527
-8 1.0505573 3.4067974
-5 0.88315487 3.8761692
-8 -1.2761323 1.6950808
-2.7252059 -5 5.2293081
0.79829264 -0.27390516 8
7.1698394 8 3.7027371
-2.437314 5 1.3716702
2.4607611 -5 6.7900214
-2.9815903 -4.4219742 10
8 -5.9646931 0.12750596
2.1578288 -2.3247087 19.30294
7.3327312 -8 8.4550238
0.45699745 -3.527077 10
2.7418203 -6.1188488 0
-8 2.243027 4.247683
-7.0250225 -8 9.8207293
3.4582715 1.20565 10
-8 2.9944286 8.1803598
-2.3473685 5.7717032 0
-5 1.6515927 6.8958054
5 4.5070896 2.5740144
8 -0.77007103 2.8645883
8 -3.3460872 6.3615189
-7.7185941 -6.5035553 10
-7.0241241 8 7.0163126
-4.0717907 3.300817 8
2.0414143 5 2.2891126
2.8855639 -1.0642349 14.663065
7.8582997 5.9686537 0
1.6486708 3.9930251 10
-8 -0.82160711 7.0218391
-4.6993823 5 1.5329964
8 4.673213 2.1526783
4.0909538 2.7170177 8
-8 -7.7473998 4.8033233
-5 -0.80023527 4.9825521
4.081048 8 8.6298876
-2.3072114 5 0.93835378
-8 -2.2483094 4.6719294
-1.4764993 -8 7.0265288
-0.87305635 3.0310888 16.840973
-2.4862618 8 3.0976982
-6.9273448 -8 1.5845548
-4.3607159 -5.1626468 0
-3.1906695 -0.5357762 18.979952
1.4186218 -3.0310888 17.337294
-5 -0.43689823 7.5271039
-5.8703222 -8 3.2431898
-8 6.6968431 3.424391
-0.89194393 -5 4.7079444
4.6123738 -7.8480062 10
-1.386307 -8 6.2597599
3.5675359 -8 4.8243318
3.3023312 0.34237221 10.700666
-8 -2.0988364 8.0083847
-2.4190321 1.872291 11.487852
8 -5.4869652 0.76705676
0.70456696 8 8.1467447
0.028140068 -3.859781 8
4.6879606 -5 5.9263453
-8 -6.5033464 5.4890628
-2.0693789 1.235744 8
-3.1667843 7.4901199 10
2.4261155 -1.8600229 10.805601
-8 6.3833423 4.4184203
5.2229109 -4.1481085 0
4.1246452 -5 2.1936116
2.561059 2.2835641 10
5 0.51440591 3.1771331
0.13404465 -3.0310888 17.082565
-5 3.3869927 0.93591261
-2.1502883 -0.59862339 20
-7.3808093 7.5324235 0
-1.2842548 -3.0310888 13.049698
1.1169327 -5 1.1788549
-3.1141634 -0.66828877 17.421515
-1.7522274 3.0272307 11.023773
5 4.5028372 4.2412095
-6.8185043 -8 3.8069675
-5 3.8432589 4.4273281
-3.7522888 8 4.6726065
7.908114 8 3.1632276
-5 4.7855577 0.45130739
2.1594837 2.3218424 17.866554
5 1.5623937 4.9864287
7.2442484 7.7838554 10
-5 0.820548 1.2321744
-5 2.4016147 7.8169494
3.0550776 -0.77062804 10.959706
-6.1065578 -6.8042817 0
0.17630005 1.005536 8
1.444288 -7.794693 10
-6.5086131 -7.3354802 10
3.762341 3.0976129 10
1.6523747 -3.9078715 8
5.3480306 -7.5870519 0
1.7275383 -8 3.1352477
0.064146519 -5 4.4598951
-5 2.6845658 0.42881441
3.4388113 5 3.509155
4.4266005 -5 3.5687099
2.7011814 -4.36691 10
5.1256661 -8 6.9829741
-2.9335217 -4.5978904 8
-7.5712872 6.8174248 0
4.8738847 2.4948668 10
1.9975618 -8 3.9761624
2.8628268 -1.1036164 18.277292
-5 -2.3445444 4.5997186
8 -3.8296106 9.9427414
5 -1.617255 7.4072604
-4.4931593 2.6922562 8
1.9270976 -7.081182 10
-6.6938543 -5.0977926 0
-2.9925723 -6.7045641 10
5.2920437 7.5822816 0
5.7630663 5.7657299 0
1.9321637 3.7856965 8
0.99212694 3.0310888 15.597985
7.7179489 6.8281422 10.000001
-5.2886233 6.8160658 10
8 -3.178401 4.076489
5.2646122 8 9.2158079
1.8145108 -3.1659641 8
-2.0306914 -2.5449171 12.965372
1.6337337 7.4665127 10
-5.5450802 0.64481521 0
-6.8205729 -8 7.9452224
4.9264755 8 4.3255215
3.1472521 -0.61097759 14.805912
-8 -4.8726172 9.6513596
4.7877498 2.2753413 10
3.4194398 -0.13953416 10.75084
-5.8875446 -3.4234688 10
-1.0349398 2.5930459 20
-4.2350578 6.2347693 10
8 0.10559654 0.31835145
-5 -0.38677311 2.6829739
1.9585321 2.6699009 11.333457
-8 4.3246155 4.3341527
1.3523819 8 2.8988247
8 -6.6049905 1.7791865
8 -7.9337287 3.0666928
8 4.0184002 9.2201118
2.5943465 -8 4.4912658
-5.7564402 6.839684 10
0.59267193 3.0310888 16.722212
-5 -0.45820189 7.7962461
6.2710438 -7.2086592 0
2.5389338 -5.455236 0
2.4542236 -8 1.755479
-1.4637394 3.0310888 14.504512
-1.2926229 -5 2.8476171
3.6986661 -4.9999995 7.6507363
0.56878829 3.0310888 10.957968
6.0699921 -8 5.2017608
2.925971 8 8.8005953
-2.6494658 5 1.2705963
5 3.4345317 4.3835545
8 5.9781437 5.4078956
-1.5329609 3.0310888 18.363684
-4.2008839 8 7.9775019
5 -4.0791397 4.1886497
5 1.4389182 3.4179788
7.8333321 3.0405474 0
3.7889745 -5 6.5980082
1.4420371 -3.6574843 8
8 -2.3340163 8.0505524
-7.9402947 2.4483407 0
-1.3612881 -8 2.4079926
-5 -1.3178066 2.992394
3.0211012 -0.82947671 11.485022
-4.6942673 8 6.4201589
8 2.9763794 5.017118
-1.7082772 3.0310888 16.15877
3.7511368 -1.9722786 8
2.095099 2.4333599 10.595153
6.1062646 3.9359627 0
0.9432112 -8 4.3688483
-8 -5.180584 9.553503
-5 -0.27031344 1.4339938
4.8780637 8 4.2883368
8 5.5160103 8.2032804
-8 -4.4623933 5.0054712
-4.7672768 -5 3.4524965
-5.6288309 2.7802305 0
-8 3.6155186 7.8277521
-4.7150574 -8 2.8146675
8 -1.0135899 0.18052512
-8 7.6342897 4.7443657
-7.6858468 6.7789111 10
-0.76850891 -5 3.1621699
-2.0685833 -8 3.134593
-6.3968043 -8 0.80319542
8 5.9836092 7.621489
-4.1706328 1.4665799 8
4.4806428 -8 3.0048671
-8 -2.7935898 6.4838891
-2.7453823 8 0.3023386
-7.7000389 8 9.4095306
1.7236571 8 5.8803482
1.6582847 1.8969433 8
-2.7903183 5 2.2282374
8 -6.8853383 6.5324259
7.5295467 -6.6004281 0
-5.0625248 8 2.827606
0.72837782 -8 8.977356
8 4.1484795 8.250597
2.4751587 -8 1.131519
-0.49508536 -5 1.8606229
-5 4.6006794 7.1225748
-1.0067899 3.0310888 18.484028
-8 6.8030009 8.176878
-7.7520075 -1.4017091 10
-6.9951859 8 8.1306782
6.8001518 2.1281238 10
-6.0277991 -1.2484494 0
5 3.3639958 1.5321256
-0.42627048 -3.0310888 11.346197
-7.5284843 8 9.4650173
-3.4393568 -8 1.1005003
1.0954828 -3.468821 8
5 2.1961088 4.9337974
-5 2.718883 7.5293422
5 3.0425522 7.9138179
0.14278364 -3.0310888 10.283552
1.3851266 -8 4.3969278
-3.9252052 8 6.4320221
8 -0.91751289 2.9406815
0.34496814 5 2.4186313
5 -0.96297282 6.6896129
-0.17076811 3.0310888 17.153282
1.5370216 -5.9033051 0
0.28096962 -3.0703738 8
-3.667439 5 2.7559171
-1.8938658 2.7819059 17.889977
-5 0.89621878 0.55358124
-4.4323683 4.7485042 10
-5 -1.6160353 0.9667263
-5.5720282 -5.3654518 0
-8 4.3756166 4.6771431
5.5306325 8 5.8102999
2.8607006 -4.1907711 8
-8 -2.2608614 1.3692106
3.0084717 -0.85135192 14.927376
3.4063272 5.6129766 10
-6.722146 -8 9.9841948
0.024919033 -5 4.6837492
-8 7.8653784 1.3113183
-2.80159 8 7.2638955
7.1339669 8 2.9409509
-8 -2.8854182 2.2946463
-6.4499502 8 8.8270206
-3.9554434 5.8303995 10
2.111623 5.0151224 0
-5 -3.0270171 0.94332838
-4.788661 -5 1.8959035
-5 3.7848797 4.2613568
-0.49039695 5 7.039403
5 -1.2069004 0.18253063
2.3655496 -6.7877192 0
8 3.9651613 2.0139201
-5 -4.1664257 0.14846468
0.049257874 -3.0310888 14.766727
2.0648837 -8 4.9001718
5.6061382 -8 5.6652083
6.4454789 8 4.1856699
8 -3.3825703 2.7093959
-8 3.4205871 7.1142788
8 6.7251959 8.0511436
-2.3888996 -5.6474714 0
-4.6175189 5 7.2289033
-7.0263729 -8 7.6930342
-4.3884459 4.7298403 10
-7.2952328 -8 5.9870148
-2.9715648 -0.91527671 16.145588
-4.0015497 -5 6.3966036
1.0708113 -4.1539001 8
-0.60772389 -0.50375426 20
1.5862978 -3.0310888 16.700371
8 1.6757441 6.0251589
-4.0378046 5 4.1130066
5 -2.339421 3.1312072
-0.31339425 -5 1.3782783
4.3017139 4.2981944 8
-1.3627468 5 5.5204325
5.5347018 8 4.5589375
2.4524302 -8 1.8528149
-0.43001747 -0.64286089 8
5 4.5876684 7.3659797
8 1.620245 1.9295864
8 0.3705759 3.0617805
7.8939247 8 6.2112427
-5 4.6659012 5.7003727
-7.2648573 8 5.8768644
-6.4228039 8 1.3824145
5 -3.6646717 2.0731685
-4.8480425 -8 5.2265711
0.81733811 -5 3.9778824
5 4.0482945 2.3770959
-2.9165792 -5 1.9278455
5.9751368 -8 2.7529953
-0.74728966 3.0310888 13.271253
-2.6447053 1.4814141 16.89547
-6.306891 2.3816433 0
-2.7591934 -3.0181289 8
-8 -3.1929655 2.584152
3.8153265 8 8.8045483
-8 4.9495401 7.4252415
5 4.0157046 6.7873378
8 3.5822811 3.696969
8 4.8911753 5.4158492
5 -3.9129672 3.9272122
5.9060583 8 7.0436473
-3.0093746 0.84978825 13.510901
-8 -1.7884378 1.0669349
3.1656709 -8 7.4734187
-7.5199614 8 1.6058567
4.6751299 4.9470482 8
-5 3.8529565 6.0541553
-1.2714561 -3.0310888 15.882297
-6.493577 -8 9.269186
-3.5582294 -5 2.9195013
-2.4670196 -3.3417881 8
5.8446455 -7.6356373 0
8 6.4544659 3.4278524
1.7860925 2.9685748 19.392366
-5 0.36003411 3.1208792
0.27625585 5 0.80045009
3.2875228 5 0.87973887
-2.0207877 -2.5620708 17.69026
5 2.1336164 1.7144508
-5 -0.86868834 1.408576
-8 2.2748284 4.658505
2.4413469 8 7.7565012
-0.79429126 -4.6478271 10
-3.3658204 -0.23240583 14.848171
8 -2.8015642 1.6294309
-7.48874 -5.7481031 0
-3.7912517 0.86289334 10
5 -0.54674625 2.1582069
-5 -2.015835 3.0604787
8 -1.8131468 0.62707549
-8 6.9308343 3.5241358
-2.2553933 -2.1557219 19.71373
-1.661818 -0.50589615 8
-1.8006315 -8 0.17096864
2.0461841 2.9288309 10
-5 -4.5448632 3.070168
8 4.3089595 9.7180099
7.1239901 -1.1882691 0
0.79029512 -8 0.75039536
-3.48928 -0.018567629 11.00404
-5 -3.3016801 0.55623007
-2.6180334 -1.5276107 18.134752
8 -2.5528622 6.755765
-2.6046071 -2.6493742 10
-5.9017382 -8 9.180686
-0.76803994 -5.0396252 10
7.7408042 1.2091351 10
-3.5078096 6.4338584 10
-5 0.94916081 0.68332767
-2.3304129 -2.0257847 13.146585
-2.6809497 -1.4186367 11.575319
-4.1216087 -5 6.6382084
8 2.1990433 1.6282483
-8 2.3524909 7.7664299
-2.1512938 -0.94256812 8
3.5521166 -5 7.1723895
-8 -3.4003608 5.8559427
-2.1370971 0.14400643 20
-1.8746142 7.8850365 10
-4.4348044 4.4706616 8
-7.2871928 -1.6971207 0
-5 -1.4221107 2.6469665
8 6.9564877 9.4143038
5 4.1137986 1.5554644
3.4976845 -0.0040106261 13.179812
3.1200149 8 0.97746313
-1.869904 -2.8234091 16.343048
3.5729673 -8 6.1447544
7.5878196 3.8048172 10
5.5471072 8 7.8546286
5 0.57510149 5.4728398
8 -0.38428521 3.8122277
-8 3.2615519 8.9358959
-8 5.7907538 6.5304861
8 0.56219769 4.4032288
5 0.026239872 2.2925484
-6.8766937 2.0809922 10
3.2135487 5 3.3551176
-6.5491972 -2.5271029 10
-4.1822033 5 1.1674641
-1.8816375 -2.8030863 18.393366
1.2594355 0.41962516 8
-5 1.3469756 2.5558629
8 -1.837878 6.95611
5.1383133 8 9.7226353
-5.9969306 -3.6652074 10
5 4.0154886 2.7397451
7.888207 8 9.0042744
1.9590609 -2.6689849 13.420839
-8 6.6903439 2.6274083
-1.1481919 6.4069757 0
-5.5059881 8 1.6388227
8 3.1651611 3.2978299
-5.5146761 -5.6297541 0
-8 7.7887545 6.4753098
5 2.1233346 0.7358948
7.9671741 8 2.9702277
-8 -6.5273867 0.11803534
5.4537106 -8 5.4546976
5 -2.4663439 3.8549678
-3.4771903 -0.039507601 18.572308
-1.4934158 -7.347188 10
-3.1751149 -4.5446448 10
-2.488399 1.7521441 12.098866
2.8785868 -1.0763191 18.508707
0.093819141 -3.0310888 12.189875
8 4.46451 7.0881495
8 4.8875198 6.0880203
8 5.9562159 2.2008414
-5 1.2132825 1.7309752
1.7328339 -8 0.87641841
-7.2872281 -1.6215491 10
3.4023685 1.9419737 8
2.9724007 4.7742438 10
-2.9956818 -0.87350458 19.967712
-5.6555424 8 3.7393115
0.56795812 -5 3.9401217
-1.360054 3.0310888 14.639461
-1.3440773 -5.4909334 0
-1.8084453 2.9298584 12.909539
6.4088697 0.1523304 0
6.8047748 -0.23872972 10
8 2.3041582 1.9058679
-3.206933 0.50760698 17.647114
7.5097589 0.054637671 10
-2.4815304 5.8206592 10
8 3.0616913 5.4496574
-7.4584618 3.5051219 0
-4.2965355 -2.318625 8
2.1127117 -5.0849199 10
4.4626961 -8 7.0760283
4.5165033 -2.71294 10
5 -2.9870601 6.8880181
-5.4247971 -8 6.8625116
4.9999995 -4.3920007 6.5498352
2.1965871 -2.2575772 19.367378
-5.9171095 -5.4126005 10
-2.6665568 -3.6300645 8
8 -7.919735 9.1615181
0.8131237 5.8704052 0
-0.36713958 7.4920993 0
-3.1477966 0.61003435 15.694598
-3.1790409 8 4.4265585
-4.0061827 -6.608552 0
-0.84930086 -6.060658 10
2.82271 6.971138 10
-8 -0.30472898 0.81046015
2.6636374 5.0819082 10
1.0918187 3.0310888 12.354212
-5 1.1841207 5.2379603
-5.2980151 -8 9.3534737
-5.6658249 -1.4443917 0
-4.4251971 5 0.43371624
1.7487569 -8 2.8304563
-5 -4.3594894 1.4037147
-6.9279842 -5.89219 10
-2.0099208 2.580893 19.407948
5 0.1767385 0.23516242
-8 5.5879221 9.9469681
-6.2000432 5.6728187 10
1.382069 3.0310886 11.587593
8 1.2004614 4.1198277
-0.23882174 -3.6189487 8
-0.23319256 5 4.5608392
-6.4362402 7.2133207 0
8 -0.64886427 8.982151
2.8715191 -5 7.7287464
-7.2687674 8 1.7928905
5.9654531 8 0.17365515
-6.1822853 3.763432 10
6.593966 -7.3153901 0
8 -7.0433736 4.0763578
-0.81856203 7.0042653 10
0.5918684 -3.0058689 8
-4.2578411 -8 8.9948921
1.1899371 0.84973598 8
0.54469466 -5 4.7931232
3.1076038 -0.67964995 10.085882
-4.6582556 -5 0.087610722
-0.41803515 1.4324878 20
4.1448612 -5 1.5603395
8 -0.63286185 2.4474463
0.70629334 -3.0310888 16.510798
0.27874851 3.3291779 8
-3.4308448 -0.11978044 12.412178
2.4822581 8 2.0292425
-2.7571564 8 7.5201569
5.9922915 -2.0039473 0
8 7.2359724 2.1386867
1.6279585 6.8507872 0
2.1156731 2.3977244 12.623783
3.8173997 -5 4.6156373
7.0689969 -4.8675942 10
-6.2768292 5.6294098 10
-5.2389574 6.3201718 0
8 5.7675467 4.5402122
-1.2316631 -4.9233503 8
8 -6.8565454 2.6905673
5 4.9835377 3.1664898
-8 2.6658545 8.0373659
-2.2103593 7.2159748 0
8 -4.4907136 8.7344551
5 1.4000849 5.3133092
-3.1436169 -0.61727369 13.727917
5 -2.289813 1.2254947
-5 -1.7836144 1.2161078
-2.5908415 5.8469872 10
4.7689271 5.0353065 10
6.0519814 8 6.2168798
0.78606415 8 5.3413749
1.4741802 -8 8.4291925
-0.98919302 -3.0310888 16.962862
6.4103279 5.4653831 10
-3.2397876 0.45070106 16.157099
2.6966419 -2.9106586 8
-3.035017 -0.80537409 16.7211
2.9998012 1.8919346 8
8 7.2398748 4.1175489
3.1185296 0.66072607 12.954162
-8 5.3940363 6.2182913
-0.56169724 0.50896132 8
4.7752748 3.1797342 10
2.0307431 2.5448277 19.047756
8 2.5369368 4.0257959
-8 -5.9192982 6.3844924
3.5709829 -5 7.4924603
7.3390217 7.3775091 10
-3.6032734 8 3.4967349
5 2.136816 3.6175854
0.75795269 8 9.9211826
-6.5398884 3.9392767 10
-0.56848717 3.0310888 11.417393
-1.4267278 5.0849166 0
3.4074821 8 1.8585461
3.6750641 -2.9194946 8
-5.3476925 -8 7.5553985
-5 4.1473122 6.4860544
0.85384053 0.52920711 20
-8 5.8737688 1.460094
-3.1984959 8 8.0990067
-5.3328323 8 9.1789799
-1.3085304 -8 6.3393145
-7.0419636 8 4.9418287
0.35397291 7.6884727 10
1.8534176 -2.8519642 14.22795
-2.3166113 8 6.4421053
-4.5716457 -2.5949123 10
-1.9848633 -3.5709863 8
7.3578572 3.3783531 10
5 -1.6315092 5.8537397
8 7.3771744 7.5742064
-2.7179976 -5.1727023 0
4.49193 -5.0000005 2.4923487
3.7540345 -4.0950933 10
-2.4738789 8 7.1091423
7.481523 -7.2240257 10
-2.041352 2.5264525 10.247604
-3.4503269 -3.7918415 8
8 1.1981497 2.0128088
2.3239038 -8 0.45856276
0.29949582 -3.7870152 10
-8 7.3305035 3.8094084
-6.3304005 -4.8620629 10
5.0605745 5.3374872 10
8 -0.66549861 6.6599383
0.75424433 -8 9.4456158
2.3100779 -8 4.2199359
4.4764323 -4.207871 10
-1.2560687 5.2000561 0
5 4.8607945 4.0232038
-2.1220255 2.3867218 14.758424
8 3.120369 6.0463367
-7.6254606 -3.5917573 0
4.1219788 -5 0.18191814
-2.8990884 -0.34286499 8
8 5.4965334 5.1452103
2.2113647 3.0290966 8
2.8351824 8 9.4084749
-2.2114735 5 0.35298604
-0.51069045 3.0310888 11.261155
3.2878423 0.36746812 12.452353
6.0201917 8 1.872313
3.562813 -7.7560062 10
-8 3.917521 9.4352474
1.6411929 -8 9.1789598
4.6634927 5 4.6187983
6.7098875 -5.781672 0
-3.245379 0.44101611 10.020692
8 4.6380787 4.6449275
2.412787 6.7037177 0
3.4748669 0.04353172 10.023293
0.25669289 8 3.9516659
-4.5452614 5.9340634 0
-2.3114433 8 1.7196113
-1.2109038 -8 3.515866
-7.5352831 -7.5859375 0
8 0.058443069 1.6067275
-7.7598619 8 0.66947317
-3.3532648 8 7.7055082
-8 -7.7914696 0.025480703
-8 -4.8630891 0.023007475
2.0510607 -8 9.9503965
-4.7915821 -1.7372372 8
5 1.9024384 7.1961293
-2.6322942 -1.5029105 15.339247
0.91460657 -5.7409992 10
-4.3359251 -5.7419791 10
8 0.94596195 2.7458956
8 5.5779638 9.9540148
2.5762701 3.7504625 10
-2.4106331 5.3335433 10
-3.4639711 5.125031 10
3.1965976 -0.52550828 10.880916
-2.0641901 -2.4868956 17.428747
4.3284683 5.3338146 10
3.4398646 -5 2.2117414
-8 -6.3990002 8.6789675
8 -4.2374611 6.8560853
-8 -5.629046 9.5052414
-8 -1.9495885 4.2617764
-8 3.9463787 4.2659988
3.2613897 -0.41328511 15.817542
-0.70575452 6.8950262 10
5.7169533 8 8.6096144
0.3323431 7.1492891 10
3.947475 -8 0.49323875
4.3163252 8 6.0994425
5.4273634 -7.7231407 0
5 2.1449134 1.4671458
-8 7.6617227 9.1340981
0.35751706 5 7.6496434
8 4.1752472 1.4123605
-8 0.64950752 9.2609568
0.28405976 8 8.090764
-5.8514814 -5.1519756 0
-5 2.8990202 7.9614406
8 -5.7217641 1.6739513
-6.7935743 -8 6.2655945
-8 -2.3781998 5.1229901
5 -1.9976377 1.8930125
5 2.6380937 3.5893238
-5.4969926 7.7748094 10
5.2404575 -2.89098 0
-8 -6.9611988 4.5454688
2.2322829 -2.1957505 15.249352
8 1.9737034 1.7434256
8 7.7850285 2.272038
0.91048414 3.0310888 18.547735
8 -1.4237752 9.4676189
3.3135676 -1.0909725 10
-4.5858278 -5 3.2059159
1.1884134 7.7415175 10
-3.9301 8 1.8474883
2.6614084 -3.0702729 10
-1.7002344 8 8.557436
-8 -5.6840701 9.609334
6.6359892 8 3.1215768
8 -6.2098989 7.0090351
-0.929075 -8 8.627492
-8 -7.3205347 0.74992299
-3.6181693 -5.6747808 10
-2.8931408 -1.0511112 12.372355
-5 1.8335557 4.4397182
3.1455042 -0.61400473 10.534327
-5 -3.485801 5.1852093
8 -1.2237661 1.498174
2.2446079 2.174403 18.758057
2.1686769 -5 7.9904361
-8 -1.8629284 5.1825409
8 -1.0187662 8.5123243
0.97375125 -8 3.2873373
-2.69467 -1.3948724 13.185173
4.3108025 -1.040738 10
1.9089937 -2.7557037 16.862638
-2.8192244 1.1791377 10.042368
4.4553099 -8 9.5663052
7.3284636 -3.6136827 0
-0.036989212 8 3.5686011
7.4402838 8 2.9496522
-8 -6.3612766 2.6130698
0.46383762 -5 7.9331713
-6.5627613 8 2.6581662
-8 -7.1534977 3.6766315
-4.8257537 -6.8857303 10
6.5581732 -8 6.2332716
7.4621539 -8 7.7734942
7.3588066 2.7383609 10
-8 -2.5492029 0.40221033
-0.004761368 -5 0.78033543
5 1.4628159 7.5030022
-4.4055843 -7.292357 10
-7.1993256 5.0905452 10
1.8386765 8 9.1998339
8 1.8936729 3.6043742
-2.9023991 7.6772709 10
-7.4067078 -2.0637424 0
5.2619724 -3.528507 0
1.7938722 -8 5.8424978
