# .PCD v0.7 - Point Cloud Data file format
VERSION 0.7
FIELDS x y z
SIZE 4 4 4
TYPE F F F
COUNT 1 1 1
WIDTH 2056
HEIGHT 1
VIEWPOINT 0 0 0 1 0 0 0
POINTS 2056
DATA ascii
-5 -2.3109136 5.4978356
3.0799704 5 1.3602608
-2.2227807 -6.2864442 0
-4.3183231 8 1.0520208
-4.3324199 -4.285707 8
6.8499055 1.0918795 0
-1 -3.2442822 12.491751
-6.4767613 7.3413963 10
-8 6.1211433 4.998477
0.48251438 -1.7876289 8
1 -6.9009333 10.351629
-5 0.787314 0.79921675
-3.9105163 5.7348385 10
-1.7038198 -5 3.3939698
4.1748567 6.672307 10
8 -0.6654979 5.6321044
-5 1.2836761 5.0756721
2.6252079 4.7608447 8
3.0166712 -0.28170753 8
-0.63071311 5 1.8218991
-5.7939034 0.14634609 10
0.84782219 -5 6.4285316
1.9469013 5.5739584 0
4.4157648 -5 4.8674974
1 5.4768457 14.593819
-0.54404473 -2.0892084 8
-0.39350387 -8 19.39513
1 -2.7555811 14.175186
4.06919 4.974884 8
-3.5380294 -6.5020175 0
-8 -6.5604706 9.2609434
5 -2.9262118 4.4956403
3.343837 8 6.8075609
-8 5.7329659 6.8701038
5.2157412 -8 7.3863392
-0.39736652 -5 2.141665
-8 -6.0418801 1.9747512
0.60750127 5 4.3244109
6.1597533 -8 9.5469074
4.6612716 -8 5.2373505
5 -0.45973802 1.09512
1 -5.8373232 17.599291
6.4378204 -8 6.7774606
1.8006184 5.0000005 5.5290933
0.097786047 8 16.478598
-4.7791538 -1.575036 10
-0.11585775 6.5846481 20
5.0407043 7.2745428 10
-8 -1.7877202 0.05117894
2.8291347 8 2.6199241
-2.4961982 -1.2875309 10
-3.9179347 1.3240435 8
6.9921751 8 5.2318072
-1 -2.6737487 14.691309
-5 4.401083 3.1475105
-3.0530355 4.6544828 10
-7.5853195 7.2526693 0
8 -3.7211385 5.0304031
6.5482597 -0.98820233 10
-1 -2.8460236 12.571507
1 -3.8386221 11.591638
8 -5.7017264 9.7230377
3.0271199 8 4.0730596
8 -7.645226 9.7221336
-4.8517551 -5.0939236 10
4.1092472 1.7262982 10
0.98912406 8 5.2538295
7.4898319 5.4809036 0
0.0078594685 -5 6.4617019
8 -0.92267746 5.3794374
-3.1805811 -5 5.099103
-4.0709143 -5.6861753 0
-1.2799575 -2.2194042 10
8 7.1412125 8.8943224
1 -3.1284964 11.856071
-3.7642312 -4.8465824 10
-1 3.932452 16.99486
-8 -4.2677236 5.5244484
-8 -5.5811553 2.2514789
-5 2.256391 5.035789
-4.1022711 -0.42749119 10
-3.0017347 -5 3.5887685
3.3841 8 7.4209404
-0.46076226 8 4.8384695
-1.7538594 2.1174357 10
2.9745841 5 2.9861693
6.2250676 8 2.8320498
-8 1.021148 9.9526701
8 -5.5264363 9.041132
0.81863058 -8 7.4141297
-1 -1.5157932 19.622114
5 -4.5012212 6.0937686
-7.3281713 -8 9.8875294
-0.98221779 5 3.8695157
8 2.4938297 1.997243
1.8187406 -8 1.7677995
8 -1.1456313 6.8680582
5 1.6628132 6.1832638
6.8562288 8 9.0443707
0.43486902 5.2205448 20
-8 -3.5078256 9.1580839
-0.52965117 -8 17.923481
7.6589885 -4.8705316 10
8 -5.9078364 3.9138587
-1 1.6141108 19.899036
0.89111143 3.3233333 20
-1 0.39969468 13.074717
-3.7553813 -8 6.0470276
4.524857 -4.9999995 1.3762026
2.8864326 -6.2614965 0
-3.3870811 -5 1.990045
-8 6.0572214 3.3181791
-8 0.42282248 4.0328498
-0.18155789 4.9680138 8
-6.8190093 -8 0.12595885
-4.0069532 -5 1.5634824
-1 5.2011614 14.476368
1.7360719 4.3767662 8
-3.8197911 1.0437601 8
-8 0.36904991 3.0858493
4.2344379 8 4.0757184
-0.44312882 7.4336967 0
3.1877398 -8 5.857841
-1 1.4679141 11.798805
-1 -1.0428298 11.214235
-1 7.914011 14.462307
-5 3.8286715 3.590508
7.594439 -6.4498363 0
8 -5.5640187 3.1160917
-6.9513779 8 8.2838879
-1 -7.8386483 10.676255
-1.2497644 -5 5.7030649
-8 7.2905879 6.6890607
5.1859746 -8 2.1097422
8 5.1102028 6.187686
-1 7.6777744 14.723406
-1 3.986903 17.085594
-2.1072929 2.2598007 8
1 6.3007555 11.726261
-8 -4.7007351 2.2512035
1 5.3418016 17.676086
-8 0.72024655 2.0550585
7.1273909 -1.0775287 10
8 3.1617498 9.2814617
5 4.5548892 0.84384054
5.4751453 -4.4659004 10
8 -2.8184645 8.8678112
-3.7175064 7.6381669 10
-5 -3.5740736 6.6691093
1 -3.7466187 19.730022
-0.85373479 5 3.081459
-4.733078 -5 0.52016729
-8 -2.1762528 7.0233397
1 7.8153648 11.090498
5 -2.5809038 6.9030972
-0.14964271 -7.5788918 0
2.4293866 -8 8.6547174
1 -6.893939 10.845531
2.4181952 4.1950541 8
1.1965424 5 6.07236
-1.2615538 -5 3.6200099
-6.9244356 -3.6007495 0
-0.25685477 5.5461702 0
1 -6.1847053 19.046183
-8 -2.3036137 2.6029098
3.0568919 -8 1.8332728
1 1.3630571 11.77982
5 -3.615871 2.9408488
1 -0.36153579 14.534066
0.77381045 5.9929147 20
-5.5964417 -8 0.73094743
-3.5587296 8 6.5146117
-6.3297992 3.7786183 0
1 -5.2707038 15.299021
8 2.3487349 0.54297799
3.1221528 -5 2.0796256
-0.61682802 8 3.6323571
-1 6.9893613 13.643499
1 -5.2157745 10.1395
3.6461122 5 6.8190141
-7.9327774 3.1136143 0
-5.1963711 8 4.391077
-0.8538028 8 1.7115593
6.2694364 -4.1937027 10
5 -4.4566231 0.63572103
1 5.7901783 18.220428
6.4516344 -8 0.96952343
0.77689779 -5 1.7667513
-1 3.3344254 13.901693
-1 -3.4251931 15.21789
5 0.0792799 2.1622164
4.8882709 -5 0.59450674
5 -2.2506735 0.94688547
0.22717315 -5.6898332 0
1.4410162 -6.5684071 0
5 -0.53121829 4.612277
4.570816 -5 2.5932808
-8 -3.4818788 4.210969
-1 -3.9814048 11.172665
-3.6326003 -2.1586275 10
0.6049881 -5 4.5306201
-3.5182545 5.5043497 0
7.5084314 5.5375857 0
-7.4786954 -8 2.4818912
3.0311637 6.6138663 0
-5 -0.89952445 6.3404632
-3.9109142 -5 0.50287294
5 -3.7522135 6.7892189
8 3.9616718 6.5663662
-1 -1.9071105 12.425177
1.8858873 -1.3821431 8
-8 -1.0642298 3.6001296
1 0.076771736 10.442698
1 -6.5863171 14.965428
-1 2.0186691 14.779422
5 3.290719 5.0505438
-3.3448753 8 8.6851454
-7.60144 -0.37519681 10
-6.4566736 5.3979588 0
-7.7150683 -5.1463876 10
8 -2.9501145 3.6113129
2.7569561 3.1908531 8
4.7329211 -6.5179324 0
8 5.27493 6.5892086
-1 3.880487 12.785959
-6.4294434 -8 2.1924539
1 0.80542469 10.167746
8 2.4953842 9.428421
-8 -4.2265482 9.1781807
7.7102528 -8 2.3358417
-8 -2.8007336 0.65339291
1.3489482 -5.851449 0
6.1848454 -6.9507608 10
0.63570786 -2.0753367 8
5 2.7891426 7.6372752
-0.56074572 8 7.4260926
-7.8241115 6.1382947 10
-5.6537628 8 7.5261588
5.6987677 -8 6.9903893
8 4.8925285 4.2291241
-1 -4.107913 10.596073
-5 -3.8065951 7.6079841
-5 -1.5660573 2.0607095
8 1.1048839 8.3963852
-3.2905216 1.1677583 8
-0.87884355 -5 1.7935796
6.1558118 -2.2282043 10
-5 -2.5831604 6.3568258
-0.51674318 8 5.2907515
5 -0.70460188 6.410428
-3.049263 8 5.1049991
-7.4951973 -7.795743 0
-1.2367095 0.92421591 8
8 -3.0345373 0.1613169
-2.0912209 4.1083336 10
1 5.6695304 19.652882
-1 -0.78114963 15.815224
-6.87467 -7.9639091 0
0.93858624 -8 15.479645
4.5992684 -8 0.77285564
8 1.5421305 5.5924988
-3.94784 5.8046622 0
3.8257656 -6.715971 0
1 -3.2961366 11.687342
1 -2.6240423 18.05282
1.0917556 8 5.8961926
-7.311429 8 7.8513565
-8 6.4825797 3.121304
1 5.0814009 10.549649
1 -6.0879698 12.194611
-1 3.9920785 12.391805
3.6164975 5.3803854 10
8 7.8148251 8.6844931
1 6.2348609 19.677786
8 -4.5254726 3.3693442
-7.0074396 -8 2.4243317
1.8797927 -0.81759739 10
1.3993456 8 4.3034654
-8 -7.578722 4.2375345
3.5285575 -8 0.38479352
-6.8561711 8 2.5709481
0.03155756 -5 6.9506507
0.53473747 -1.2461472 20
-1.7740722 5 5.9040155
5.0000005 -4.7319608 0.42058793
-8 4.9301519 1.2602988
8 4.5917053 5.5101447
-5 4.4832315 0.6005522
-8 -4.821281 9.7275724
5.6268773 -8 1.733238
-8 7.9538169 5.5152049
6.1028767 -8 1.568081
1 7.8828363 18.920031
4.499548 1.6305885 10
-0.50594878 -8 4.2389631
8 -1.0298424 6.4441767
1 -3.6424847 10.462791
2.3561673 7.0402713 10
-1 -6.2664027 10.140396
5 -4.2590623 7.2141314
-8 -2.0020461 9.7802868
-8 -6.1611371 2.6975493
5.2299223 8 4.3396058
-5.9009957 5.5563793 10
-0.27561232 8 18.514917
4.8298016 -8 1.6318361
0.0051891189 8 15.246376
0.26550162 5 5.7056208
1 -7.5941925 17.159998
1 -7.4833293 10.904921
4.8649349 -4.9095154 8
-2.0194037 5.6536808 0
-1.0680988 5 0.056043692
-6.4130249 2.0761559 10
8 0.19620514 0.49728695
-5.2944918 8 4.9762721
-5 -2.9767196 6.5876083
-3.3835497 -6.9702272 10
8 2.334949 7.6323977
5.7698216 -0.27351379 10
-1 2.5626457 14.929543
7.3352818 5.2264538 10
-1 -7.657774 19.362097
-1 -4.9798241 13.040498
-7.4069066 -8 7.2563081
-5.5530033 -6.0560503 10
6.4140911 4.3886333 0
-0.60980737 -8 16.632616
2.9874473 -8 0.14423145
1 4.8070707 15.23092
8 -5.440917 6.9906788
-8 -2.0980358 8.8030195
3.12852 -5 2.9337015
3.744565 -5 7.3853035
5.0847788 2.0619879 0
-4.8329515 8 8.2821388
1.805526 -5.1115379 10
1.7435551 5 0.69963765
0.53027153 -4.4004774 8
0.61115819 4.4596057 20
-1 4.6852617 16.043268
0.17568378 0.86631358 20
-6.3353052 -6.8731689 0
-0.94224298 8 15.455723
-8 -7.4459867 7.5756807
0.94286656 1.8623934 8
-1 -7.8420005 15.786255
5 -4.2836723 2.4797339
-1 5.0515065 11.795915
8 -5.0935922 9.0904894
3.1836672 0.52489156 8
-2.8241816 -5 2.1229463
-0.31825626 8 0.13256907
-2.5148149 -4.706296 10
0.016471028 -8 5.7421675
7.297318 -8 7.9693274
2.7092874 -0.47917461 10
2.0988395 3.8580382 10
-0.91715759 -5 1.5926003
-3.2955203 3.733731 10
1 -2.7933066 11.571205
-6.8369808 -6.7422476 10.000001
2.971971 8 6.6584349
5 -1.2013408 1.3065554
2.6906385 -2.3059235 10
4.923337 5 6.0335884
0.57097036 6.5919108 20
7.3615646 0.72540438 0
-8 7.994473 5.7890353
-2.3820696 -5 2.7259111
4.4259362 5.79111 10
-8 -3.833128 0.48716295
-0.045376718 -8 7.7674398
-4.0359168 -5.0562258 10
1 -2.0682166 19.510674
0.58114344 8 0.061303377
-0.81402999 8 0.38026214
-1 0.48920369 10.995914
-0.41470653 -1.1711245 20
-0.97018999 3.7032735 20
-8 1.3547772 3.7763174
5.445426 8 1.825192
1.8488051 8 9.8276711
8 -7.2029872 9.7277985
-3.310771 -2.8419156 8
1 -1.1017745 13.494574
4.455524 8 8.1831512
1 -4.3577099 10.135942
-8 -1.7296026 3.8596642
4.3692398 0.91956574 10
-1 -6.3279419 10.876683
-8 -2.2879779 4.7132368
-3.2611289 -3.7518826 10
7.3104544 -8 1.7399371
0.27902359 5 4.1814265
-1 1.640543 19.122974
8 -2.0383317 0.49874938
7.9646454 -8 0.27201736
-2.3586106 7.4601431 10
-1 -6.803442 17.649529
-8 -7.5532265 4.3375006
6.9629431 -8 5.1706557
0.10103604 -2.6637592 20
8 2.628325 8.8850365
-8 0.62416124 6.3723683
1.8635774 5.0892649 10
-1.8789461 -2.9767933 10
-7.5610943 -2.9397154 0
6.6086388 -6.9870977 10
-5 2.0632095 4.8387256
5 -0.20895427 2.2638268
1 5.8732185 17.7693
-0.29937208 -8 5.4418116
-4.7617531 1.1269659 8
3.3528073 5 2.467577
0.074136555 8 11.320579
-5.0864172 -3.6478891 0
-3.8624046 -8 5.1668935
3.8113222 0.52076733 8
-4.1344528 5 5.4238873
0.87749672 8 5.0938845
1 -7.0378356 17.66688
5 -0.86632848 0.42868981
4.8585925 -8 3.9673588
-8 -3.5713832 9.9508505
8 4.9022102 0.25384369
-4.6906247 5 0.20125145
-0.42515177 8 16.209799
-4.939692 -8 3.4140434
4.250536 -7.5524864 10
6.3867269 -4.3042245 0
1 -2.6652441 12.682499
-8 -7.6563549 9.511611
0.68557066 7.376781 20
-1.6190957 -2.2572646 8
-3.713222 8 2.6634443
4.605556 8 8.9890671
0.81795418 8 9.7867899
1.2405663 1.7303641 10
2.4151583 7.5705609 10
-8 4.6109276 0.69187176
-4.6485472 -5 3.0397546
2.8661101 3.8320787 10
3.2784672 3.3621986 10
5 -0.63185585 7.7000766
-4.7898607 0.72682977 8
5 -2.888397 4.0073462
-1 -3.7822595 18.875858
-1 3.1034248 12.509434
-5 4.2233572 1.5852034
-5 -3.0462613 0.54279804
1.6879556 3.9063809 8
7.6557798 8 6.6617422
-1 -4.6983867 10.492208
1 3.0008936 16.771196
3.6214538 8 3.4900606
-4.2372389 8 8.5796747
4.6853065 0.98710692 10
-3.6447074 5 5.1855478
-0.014896989 8 6.8923922
8 6.3602648 4.5819969
-1 -6.3805394 18.721888
5 3.0042706 2.1655569
1 4.5334725 19.784014
-0.992226 1.7748219 8
0.76497716 -4.5487714 20
6.1574531 -8 2.1782172
-2.0655231 5 0.52504969
-3.378617 8 5.6249895
-4.6238465 -8 8.4873381
1.2812223 -5 5.7308569
-7.1258278 8 9.9823408
1.6300415 -5.1562023 0
-1 -0.45101309 16.560347
-1 0.47574615 11.504187
-8 -0.61340046 0.31695968
1 -6.7962451 14.040795
0.18496037 -3.4878826 8
1 -6.2950406 13.529596
-6.6777763 8 8.8786411
-5 1.2410235 3.0073969
1 1.7388594 18.139296
1 -3.2279601 13.03367
2.8147674 -2.8913193 8
-5 -4.4777074 4.3797703
0.44625184 4.5142841 20
-1.0702455 -4.5708861 8
4.7579722 -8 3.22927
-4.3558106 5 1.8915837
-1.6378793 2.8911986 8
-2.7785411 5 7.8971181
0.58833337 5 7.5338106
-1 -0.6233108 13.539228
1 -7.8998928 11.237163
-1 -5.6520905 16.926098
-1.5029359 -5 5.1732035
5.2224431 -8 6.4935284
-8 0.85887718 7.2974911
-5.1517324 0.26938868 10
-0.047479153 4.3631225 8
-6.8985281 -3.5514817 0
-7.43612 -8 0.24227634
4.9938955 -3.81779 10
1 -2.1908524 17.045565
1 -7.8867903 17.792503
-1.8253796 -8 4.8399096
-1 6.0501733 18.577358
-1.6478733 5.4980011 10
-3.8020911 1.2085985 8
5 -4.6758003 3.3269854
1 -5.5682211 14.181896
3.0678885 1.7418394 8
-3.8041158 2.0734415 8
4.5805802 -5 5.6626043
1.3436881 8 9.1125383
5.4098701 8 9.928483
5 4.491818 6.8504939
-1 6.9341702 19.67131
-8 -4.7580757 9.4664764
1.5990351 5 3.8352017
1 3.9834738 17.141132
-8 -0.90250719 7.339736
-5.9085927 8 8.4174528
-4.3460679 0.9935236 8
-7.3483863 -8 7.028635
7.1277566 8 1.0451281
-2.6710033 8 2.491895
-4.1393533 3.1318188 10
-2.4790883 0.053259134 10
5.6850009 -2.9309175 0
-2.7829857 5 1.4881536
5 4.2040353 0.97338206
5.2504573 0.94662607 0
4.4599972 -8 4.4661117
-8 3.8779593 3.1328738
1 4.6401644 12.77012
1 7.2069645 18.690399
-1 -7.3514118 13.50988
6.5926266 8 6.4592676
1 5.4550238 13.484112
0.70985699 -8 4.7343349
-0.61419857 -0.59664917 20
-1.4133146 8 1.8726581
-5.1283932 -8 1.3803706
6.9130635 -8 9.0142488
-1.5958881 -5 1.3740726
-8 0.44637918 7.544641
-0.57805777 -4.2168422 8
-3.6977334 -8 7.073081
8 0.26328039 9.0033426
1 3.3709326 12.55444
-5.6307755 1.1399359 10
-1 -1.3600197 12.611741
-6.6481438 -6.5935974 10.000001
-8 -7.2475371 0.50681573
-6.9477644 -0.34607363 10
-8 -3.6314368 1.6297307
1.6634938 -5 0.95099926
7.2067966 -5.1644249 10
-5 0.81659746 4.5498447
3.4768243 0.58626199 10
1 2.556303 11.327844
1.7841343 6.0460453 10
-3.8300176 5 3.7319698
0.74363995 1.7889805 20
1 3.1761055 13.308992
8 -4.9771318 4.7790232
-5 -0.27869105 4.3819461
-8 4.8362522 8.7358379
1 -5.2929454 15.100644
-4.5951338 -7.545414 10
-4.1586423 -3.1750402 8
-0.78650093 -8 0.45040348
-8 -7.1208334 3.9468858
3.736752 5 1.4794493
7.2691507 -6.05441 10
-8 1.5611024 2.6753469
6.523407 8 8.7193432
-2.3435218 -7.263237 0
-0.7660557 8 7.1130047
3.7554245 -0.2456131 10
-0.40163016 -3.0538242 8
1 0.68808818 19.441963
1.0965446 5 5.2028723
-0.91187763 4.22439 8
7.3496656 6.2268972 0
-1.0062833 8 0.82939506
-0.76262248 8 16.181684
-3.6194091 8 2.9808431
-5 3.7059593 7.5275731
8 -6.3260856 5.7558413
-4.6588688 8 6.9119434
-4.0334759 5 3.3296587
-4.9741974 -5 1.5426642
0.82272106 5 4.4788961
-0.62368059 3.6985292 8
-8 -7.142252 7.6343336
-0.22768494 8 15.074416
2.956049 -7.3670273 0
-2.6360731 0.98861313 10
-3.306529 -8 2.0891244
-5.1635232 4.8590608 0
-3.7069635 -5 2.3784876
0.73634315 -8 17.019489
-5 -4.2273874 3.692317
2.4416504 -8 2.6525667
-0.46339273 -6.3638473 0
8 7.8792095 2.8910348
-1 -0.49590516 15.748092
-5.8269672 1.3587987 0
-0.54529333 5 2.0190895
5.3559189 -1.7576003 10
-1 -0.40991759 13.162264
5 4.3969479 3.6650314
2.9930105 3.4966741 8
-7.395926 -8 1.4501655
6.8664513 0.86543083 10
-1 2.206568 18.877754
1 -7.4906693 13.81579
-0.021201789 -5 0.99729013
3.2939632 -5 1.9271359
8 -2.1695366 0.7289843
-8 6.7706404 7.652246
8 3.0654306 0.82047129
5.4027977 8 3.4020376
8 3.7123032 0.30356419
1 -2.8842306 11.313942
-1 -2.8530765 11.686178
-1.3302927 8 2.1027243
-6.2354145 -2.6364841 0
1 -3.7394829 19.901661
2.4668677 -8 6.3437676
-5.8185692 -4.4096532 0
-7.7845201 8 3.0655961
5.3927393 2.028625 0
2.2642245 7.3787894 0
8 3.2904491 2.5258791
1 -3.6541529 10.204386
-8 5.0770636 4.2407255
0.92426884 8 11.943693
-8 -6.4635739 7.927474
-8 2.5921073 5.3959045
5.2260013 -8 2.8648758
1 -7.2007389 14.479462
-5.1828108 -5.6849623 10
1 -2.6702461 19.850618
-3.8347678 -3.8895044 10
3.3240275 -2.0454826 10
-1 1.4683108 16.597546
6.6647425 8 8.7724266
-2.6998169 -7.1150036 0
8 -7.9542379 5.9668784
-4.7500401 -8 5.2696104
-4.1040835 4.5847187 10
7.057229 8 5.0212593
-1 -4.9600906 15.687534
-1 6.7097011 16.282658
-8 5.7096701 0.55786294
6.3932848 -1.2453985 10
8 4.78087 8.174633
-8 0.70783758 5.6489711
-6.2291942 8 2.2221997
5.3206615 8 4.402195
8 -2.3646071 2.1229055
1 -7.9695349 13.365486
5.5114894 -8 1.6870192
8 2.6082711 8.6313629
-5.5408583 -4.462678 0
-1 -3.9827819 14.825492
-5.5066938 -1.2127421 0
-1.5656378 -8 8.7008486
4.9589539 -8 0.98487931
-5.2608099 8 6.8783922
-1 0.74526787 18.942568
-6.8993502 8 2.0266781
5.6878228 8 0.86914718
-1 5.896822 14.082289
8 4.7501163 3.4135408
-0.82242984 8 4.9086337
2.2758265 5 4.0129085
5.561069 8 1.3223267
-8 -5.4736857 9.3292446
-5 -1.59289 6.7454939
5.9178085 -8 8.7630777
5 -4.9254889 1.1399088
-4.3832092 5 4.2325234
2.6701527 3.3767104 8
0.74356163 -5 3.7945104
2.3104033 -8 6.9519305
0.99776816 5 1.5910497
-1.4547777 -8 8.0231819
2.9984956 8 1.4504141
8 2.3316355 2.6312613
1.3345454 3.6525514 8
7.1523008 8 5.0912976
-3.2523105 -5.6612139 0
-3.8665905 8 7.3032598
8 7.0011387 5.7925229
-1.9582714 7.6160297 10
-0.4011665 8 0.94650865
3.1068335 3.2451911 8
-5.9742584 6.6799417 0
-5 3.1576986 3.6004596
-8 3.6910305 7.9770379
3.2883949 8 0.27053714
8 -3.5410368 7.2496004
-0.0047416687 -3.8661051 20
-0.77155656 8 0.16082466
1 -3.972518 18.091547
-8 -3.638319 7.0181332
-1 1.0858974 12.440771
5 0.46608537 2.9724634
-5 -3.1189246 2.2299776
-8 6.7200122 6.9773436
0.56943166 -6.8803177 20
-4.9776363 6.6328382 10
1.4380574 -5 3.9314837
7.1960788 -3.3132386 0
-4.1095247 -0.67389178 8
2.7687321 -3.3279333 10
1 -3.7622192 19.395376
-2.3128161 8 0.57473838
1 4.1828508 11.350638
-2.8487806 -8 1.6825198
-8 3.8891535 4.7130241
1 5.894105 18.423981
-8 -0.55997062 1.5864813
-2.169107 -5 0.49876261
4.2413106 7.4665833 0
-5.1064124 8 8.2210197
-1 6.4224825 14.008253
8 3.4894629 4.9615593
-8 -5.3397694 6.1417937
-5.9476881 8 9.0653143
-8 1.0612692 2.8680811
-5 1.1835093 3.8059304
-1 -1.6234604 16.292854
1 -2.692585 11.700058
-1 -4.1844826 17.018211
1 5.7583141 15.881012
7.7266612 -0.74819326 10
-5.3828096 -0.57588816 0
-8 5.4574065 7.5550303
-1.0002648 8 7.9930058
5.9230313 -8 3.5118232
3.1460032 4.7373066 10
0.78577632 -5 2.5906129
0.83562517 -7.5348687 0
1 7.8648787 12.239254
-7.3539934 -6.0187449 10
1 -5.0331526 15.842194
2.7936761 4.9999995 6.7006454
-5.4111352 8 1.440981
-7.9925747 -8 1.8521465
8 -0.77690101 0.53090465
-5.8201313 8 1.2171859
-0.40160108 -8 14.344666
-4.3683376 -8 2.5914571
1 5.4793587 15.906742
-8 0.036589265 9.5660248
-8 6.3716645 7.9509058
3.6905599 -7.0214715 0
8 7.1670303 3.0394239
-6.0682874 0.39944163 0
5.4651313 8 7.1401653
8 5.276701 2.7393064
-5.2902756 -6.0577316 0
-0.50749063 -5 6.5258274
8 -5.6321692 7.5351419
7.0177603 -8 4.8345571
-5 0.26402426 4.18718
-1 4.4672785 15.72234
7.0274215 -8 2.2403526
8 -1.9414597 7.6453738
3.0507503 5 6.6854868
-5.5655046 7.1941662 0
-1.4238232 -5 2.3496122
5.2974243 6.3298168 10
-6.857501 3.0671041 10
-1 2.0936809 15.587514
1 3.8318548 16.502121
-3.3017261 3.2453425 8
-5 -2.047173 3.769258
2.2882991 8 9.4374352
-0.020649239 -4.3602285 20
-2.720408 -2.678021 8
-5 -2.7152839 1.2286644
-1 3.9868612 12.615686
3.5492687 5 4.3477001
-2.6019604 4.0556021 10
5 0.98963243 2.9551342
-0.40698609 8 17.499458
7.9052567 -8 7.7612734
-2.4465797 -5 0.34477377
0.31039828 8 14.252681
-4.7982702 8 4.2914324
-8 -7.0581813 7.0974655
-7.0281706 -4.9078956 0
1 7.3380527 17.856543
-8 -3.513905 3.1849337
-5.5195899 -8 1.7127593
-2.4161139 -5 6.3820944
8 -3.5178137 4.3039455
2.1552224 -2.762804 10
2.9085217 8 6.5587225
-0.16785151 8 19.3722
-8 1.3607206 2.8440394
-2.5715337 -8 4.4492559
8 -2.3140781 5.3002439
-0.30359414 8 1.3791889
-0.35531917 -8 9.3640909
2.9314375 -4.7467856 8
-5 -2.6187184 5.2396383
-8 -2.8577747 1.1289035
3.6962175 8 0.44967055
5.728117 0.58764118 0
4.3346963 8 2.2554679
-5 3.4250586 7.9884639
-1.912281 1.4941959 10
-1 -3.5120397 16.636358
-1.5153333 -8 7.7189775
-1 7.1381307 17.006437
1.1733801 -0.31454372 10
-4.8371062 2.0874584 10
5.9422994 1.492214 0
-1 -5.5312495 19.710255
5.5520983 8 8.8876705
8 -0.93356192 4.9894772
8 -5.1945596 8.9870386
7.5667725 -8 8.3362722
-1 3.146405 16.160797
1 2.2930317 11.539798
0.033863597 5 3.8262961
1 -1.2658205 13.408659
2.9980783 -3.8279638 10
3.8106287 -8 2.8219888
-0.16038784 8 3.0246468
-8 -0.95460069 4.2248449
-0.32809424 -8 13.275799
1.1905104 -8 6.167604
-3.9307027 7.6853156 10
1 -4.3056383 11.064045
-1.923728 -8 5.4595723
-1 -0.043511629 18.451307
8 -0.11797166 0.66452318
-0.88592541 5 4.7822447
-2.1195722 -8 7.9429407
-5 1.212925 1.485311
4.4233747 -8 3.2227564
-1 -1.0013359 15.46299
-4.8289032 5 5.6977081
1 1.9421806 10.182007
-5.8694773 -5.0828786 0
1.3671864 -5 6.8476267
-5.7360916 -4.5752029 0
8 -5.9584894 5.0061755
5 1.1641246 0.97862124
-1 4.0629067 12.436724
1.0418677 -7.3871017 0
7.7198167 -7.3202052 10
5.1018848 -6.545619 0
-7.629745 -3.8511992 0
-3.8319809 -5.2341523 0
-7.2582512 8 5.4365282
1 -2.0269182 10.220409
-5 -1.4561698 1.7296848
1 2.1111894 19.986559
-4.9303894 -5 1.9442374
-5.0463123 2.4337304 10
1 0.99020004 16.205868
1 -0.18372631 12.074253
7.3049111 8 3.4615324
6.7915683 -8 9.6181955
3.8432059 1.3603916 10
-8 5.869637 0.17839453
-8 1.9413784 8.4826603
1.7359326 -4.5965929 10
1.4987366 -1.5263433 10
5 0.81621563 6.1278472
6.3726578 4.0171719 0
-2.5642843 1.6570807 8
3.4123406 7.6462994 0
1.4512358 -6.5634375 10
-5 -3.5418725 3.2000856
-5 1.1729102 4.3743916
-1.6915073 5 0.079435937
5.2223725 -7.9470501 10
-0.38875926 8 19.708382
5 -2.0505559 1.9586323
-6.6913109 8 2.0875456
-1 -0.10324681 12.857931
7.9852648 -8 1.3736169
-1.2771494 8 8.8502369
6.1810207 5.1733346 0
-1 1.0037785 19.621876
1 5.6262188 10.39176
1 0.11516953 10.1998
8 0.65161616 5.8012714
8 5.4620304 7.187551
4.7307787 -0.28350803 8
-8 -1.9423647 1.0364943
7.0781074 5.7407322 0
-1.1967722 5.9035382 0
-5.1993594 -1.1015682 10
8 7.8130674 8.6381779
-8 2.0565856 5.5561395
-8 3.6899862 8.5296717
-7.3077192 -8 4.4814339
0.22420797 8 15.917756
3.379602 -4.529192 10
-8 7.4938698 7.5539618
-3.4832244 -7.8905249 10
-6.1785431 -3.9250705 0
-8 7.8610129 7.6249495
-3.4312143 -4.9458861 8
1 -4.826046 11.636528
8 -5.2030897 8.584322
5.6402583 8 8.8963823
-4.0142546 -8 9.2912159
-1 -1.8666945 10.002327
-8 4.0897493 3.9839139
2.6728477 -1.9780849 8
-1 7.0093188 19.623444
-7.8843813 8 5.7662024
-7.8464003 8 6.0302687
-7.3387008 -1.1780367 10
-8 5.7334604 3.9002371
-1 7.1781163 17.244919
-5.4890385 -3.7904522 0
4.0494585 -5 3.7189178
1.7302518 -5 3.5724096
-6.3954954 -2.0072885 0
3.5252056 3.9931507 8
1 -7.5336552 16.291481
8 -7.7018113 3.8607643
-7.1797447 -8 7.7831383
3.9459386 -5 1.6180735
8 -2.4966764 8.7540703
-0.28231633 7.0276895 0
-2.0329232 -0.46243095 10
-4.4055223 -5.0050502 0
-0.95142424 3.1523647 8
3.0910289 -8 4.2448592
-4.3015924 8 7.0849733
3.3650534 8 8.1551437
-5.3080206 0.18483627 0
-5.9588284 -3.6162119 10
-5.7512512 1.8847044 0
-8 -0.19644284 6.0976944
8 -7.0486999 3.1237111
-7.7217498 6.7188988 9.999999
-7.5547028 8 4.6723042
7.800106 6.7727947 9.999999
5 -0.23502588 0.19574635
4.4895921 -8 7.5081358
-0.0029780418 0.79490149 20
-7.062974 7.0619011 0
2.3528056 -7.9664559 0
-1 0.85101879 12.454839
7.9573822 -6.5809045 0
8 -2.250093 9.2888918
6.6822619 0.56717515 10
4.9012232 -2.2544732 8
-3.4687169 -5 1.041853
-5 4.5635309 4.4606981
-5.2263098 -0.079580188 0
2.6866782 5 1.5705725
-2.0401998 5 0.22049905
5 -3.3996608 1.6189094
0.21528518 -8 4.2597046
-8 -7.4886985 0.5337618
1 -7.7020121 12.691024
-1 -3.8231311 10.038554
-7.6282172 1.2907193 0
-3.1364985 8 6.8611851
1 0.43610382 12.800344
-0.31885791 8 7.0188975
2.1223783 5 7.5892754
5 -1.8302002 4.1278048
-7.4242673 -5.3308587 10
-1 5.849895 19.505022
-7.2588372 8 5.28333
5.2187967 8 3.6197596
2.9626415 8 1.4127547
-8 5.508729 0.47804916
0.18084699 -5 0.48331881
-3.8653741 8 8.3698959
-0.034160603 -0.00025390461 8
-5.9772577 -6.1419239 10
-1 6.3985605 10.039333
8 4.1774259 9.5250854
7.8389015 -3.9131255 0
1 -1.559828 10.594872
1 1.3276658 19.243931
-1.3511038 -2.9356642 10
8 -1.2714281 3.4039614
0.97026229 -2.1025209 20
7.8727846 -1.4744644 10
-8 1.1292644 7.5930429
-3.8099105 8 9.0457163
1.2771573 8 1.9156128
-2.6669335 6.8129234 10
0.083012015 0.42733613 8
-5.8346949 -8 0.84556466
-3.367029 -3.9784977 8
1 -2.0430412 16.969814
-1.1158634 -5 2.950654
-5 -1.6849647 0.23361063
-5 4.9410934 7.3480077
8 -0.33337307 0.37927142
-2.334471 -3.412324 10
-1 5.1230931 16.741116
1 1.594723 17.68819
-0.1336357 6.5143809 0
-3.3964596 8 6.2642336
-5 3.450485 1.4874125
-5.6658106 3.3605518 10
-2.6958432 1.7733705 10
3.3307495 -6.5664997 10
8 -3.1647615 7.945806
1.4880958 -2.7186985 10
-0.49813116 8 7.6340938
-8 0.27060574 9.872776
5 -3.0442848 3.2820776
-5.8351178 4.3173351 0
1 -0.24550653 19.009365
0.45812607 2.934134 8
1.123076 6.8854804 0
5 0.94405997 4.3545475
-2.0578759 -8 4.2218947
-0.1151824 -5 3.7432446
2.2802224 5 5.9267402
-0.98759925 8 12.22823
-3.769069 -1.8749266 10
0.95662397 -8 18.436502
-1 -3.3717327 17.894066
8 4.0928106 7.0481443
-1.7698832 -5 0.18479633
-2.0631943 -8 8.4552507
7.751545 -3.9273522 0
1 -7.729548 12.666622
1 1.9738569 13.561777
1 -7.3879757 18.201477
1 -3.7301679 17.871487
-7.003293 8 3.7226365
-3.3377264 8 4.0245843
-1 -1.3453838 18.993889
-1 1.1725073 13.049343
5.0578003 8 1.7069316
-1.6409891 8 6.9170923
-3.7803507 -4.4338036 8
-8 6.8543406 8.7498894
-1 7.5996146 18.663258
5 -1.6041565 6.6211476
1.6555769 8 9.3963203
-1 2.8306286 11.349381
8 -6.4717774 1.7276194
0.52869987 1.3311303 20
-0.20983481 -5.8155403 0
8 -1.4269272 4.3643565
8 -1.2097034 4.5211496
-8 -2.4842148 3.2645071
1 -6.4877067 13.504904
1 -0.66442752 18.938717
-6.5804701 -8 8.0016832
-8 7.6652126 4.5845704
-7.5140181 -3.3811293 0
8 4.9365864 1.8880918
-8 -6.265717 1.1699939
7.1326046 -5.7206192 0
-3.2389579 5 7.8786302
-4.475708 8 0.15006065
-1 -2.0119932 13.202391
-0.84774494 -5 0.88268852
2.9652512 -7.0957441 10
-0.38403547 8 0.37515819
-4.5500336 6.0694084 10
-8 6.5584235 7.4148526
-5.5458026 8 1.2553459
-2.6727567 1.5121441 10
-8 -1.9544348 9.9286175
1 -5.2298212 16.795578
-5 4.1323395 2.4889767
-8 -3.4394383 0.27604252
-5 -2.1565652 7.8347082
0.97377062 -4.1261082 8
0.82972878 -8 17.67606
-2.9334836 -5 6.7461424
-1 0.62328827 19.503178
7.3962088 4.2390299 10
-3.8032577 1.9630444 8
-7.9676132 3.7172008 0
-5 3.7094698 6.5712662
1 -3.1082475 14.230126
-1.1271915 2.1115551 8
1 0.25173998 18.579645
-4.6723804 -5 3.1505311
1 5.1585875 10.022086
-0.89529026 8 14.442779
-7.4408989 7.8670039 10
2.2381151 3.3211524 8
-5 -1.4761877 5.9271479
-1 -7.6664863 18.966606
8 5.6657238 6.8537436
5 -2.8402867 4.9279881
-2.6437092 -4.2081528 10
0.70881081 -2.8751812 8
-2.431114 -5.3877115 0
-3.1410661 -6.6830406 0
0.91198623 8 7.51368
1.3876871 8 8.6741447
8 -2.9614944 4.8384142
3.9576659 -5 3.4413428
5 4.2396655 6.9452415
5.9868164 0.96402228 10
3.4024551 5 5.5645466
4.041338 -5.5593424 10
4.3006601 -8 0.8572312
8 2.6211443 3.5237701
-8 -0.015476704 8.4203777
5.2425122 -7.8910675 10
5 0.29930449 5.379117
2.6045043 -8 1.5993433
-6.1983666 0.32665581 0
-5.9108648 8 9.3568993
1 0.87724304 13.550391
-8 -1.2761366 3.2342634
4.1502228 1.1927042 10
-5.3789053 8 9.2295284
5 2.2398965 5.3317542
-2.4958801 -6.6792622 0
3.3006027 4.7924042 8
4.441762 8 0.67238808
1 -6.9791155 16.175858
-1.0993006 8 3.3622284
-1.2136354 -0.56682301 10
-3.6362257 5 4.5222263
-2.8868256 -6.8815451 10
-1 -7.4765897 13.222406
-0.86914897 -8 14.24578
-8 -4.0979843 4.8545713
-0.29400855 8 15.437813
-5 1.939018 2.9833751
1 -5.0845203 15.653955
-8 4.5718627 5.9736838
0.95826751 8 11.014431
-1 -0.62634254 12.805171
7.2007675 5.2821846 0
-8 -4.5607843 6.908206
-6.6356816 -7.7974987 10
3.9850788 -5 6.0679722
-6.9152775 -0.49618769 10
8 -6.8960352 4.4109702
6.1078401 3.8387451 10
1 0.92782974 10.83193
-1 7.9119825 19.827095
-1 3.9168828 15.095063
-0.34398672 -0.099592775 8
-6.8107252 -8 1.698948
8 -0.89473248 9.8852701
-1 -7.4881492 19.653446
-8 -3.2384388 3.9826717
-5 -3.8934751 1.7436066
3.3041189 5 1.8521466
0.64527583 8 9.2526531
8 4.2512121 5.4419336
8 -1.0311792 1.28697
4.606245 -8 2.7695169
-1 -5.6283369 15.369382
-1 -1.2883995 18.674166
-1 2.0769408 12.631357
-1 -1.7023817 16.855988
-2.4418032 7.7720833 0
3.3950794 -7.7954187 10
-1.6203268 3.1627514 8
-5 3.4783773 7.5826511
-2.2677863 7.8462262 0
-5 -3.637548 3.863842
0.15086111 -0.36409158 20
-6.0840836 4.4645634 10
-5 -2.4334371 5.0889816
0.47027159 -8 7.238071
-5 -1.0539536 5.9251943
1 5.2178965 12.621677
-6.5650291 0.50137305 10
-1 1.7815801 11.732599
3.7623229 -5.4834518 10
-1 -0.55576396 16.325157
1 -2.1189117 17.868948
8 -6.0947771 3.7722063
5 1.4850861 3.9768119
8 -7.3922682 4.3852396
-1 -7.2507424 12.137556
4.5798264 -4.0568385 8
0.43234563 8 6.3073606
1 3.4274468 18.732924
-2.4344864 0.55670333 10
-0.77336508 8 19.626398
7.6064005 2.1693377 0
-8 6.8853564 3.8596115
-7.2273288 -7.7143421 10
8 -3.2581012 6.42943
7.1083908 5.9681172 10
5 3.7605379 1.7007581
-5 0.85696411 5.9071407
-3.4847248 0.32007313 10
-8 -3.0191188 6.5275679
-1 -6.4118409 13.000937
-1 -2.2373481 10.598793
1 3.5615416 12.118453
2.8199298 -5 1.2344241
1.9286928 5 1.1311977
-3.3240075 8 1.3367546
5 3.5207009 5.7629557
-3.6234386 1.0461044 10
-1.2644477 -5 4.8331113
1.673048 -3.6265163 8
8 -4.603044 9.7220297
2.0338173 5 3.9747174
1 2.1190472 19.265722
-2.2591562 0.59795761 10
8 -5.520834 1.2587318
1.5297725 -8 2.344038
1 -4.4096603 10.183576
-5 -0.20274854 5.2010984
-1.5083841 5 2.6449506
7.257534 -8 9.7819824
0.45177007 3.9142344 8
1 -0.34874058 13.804861
-3.3793905 6.4015546 10
1.7090058 -8 2.6752203
-3.563839 -5 4.7932901
6.8310018 -4.1309047 10
-4.6520376 -8 1.1104709
-4.9577641 -2.0512981 10
8 -7.5486054 5.8212337
3.6235092 -8 5.9719167
-5.0698862 3.837003 10
6.303812 -4.0521312 0
-1.9375448 -2.2892685 10
8 -6.9790511 3.3292177
0.15772104 -4.0752063 8
5.2634778 -6.4018068 10
5.6131997 -6.289391 0
-3.280426 3.833838 10
2.7441826 8 9.9870176
4.8658714 6.5688696 0
7.8767743 -3.392761 0
1 1.0049276 15.04628
2.5500035 -3.4220972 10
2.100018 8 8.4465275
7.9866486 6.1837044 0
-6.0369425 -2.5988441 10
1 4.4602714 18.492947
6.131989 8 9.8416595
-5.8404551 -8 6.2920322
-3.0579307 -8 8.8040991
8 -7.2139063 6.3144464
-1.5779989 5.6642656 10
-8 3.1437888 7.3779969
-4.5013418 5.3850408 0
-4.5774326 0.38288355 10
-5.913002 -2.0819836 0
2.2312067 8 3.8082659
-4.4778681 -8 8.2911758
-8 4.9983377 7.0165138
5.1179085 -0.52696711 10
-1.0307969 -5 6.7389164
1 3.7876358 15.598589
-4.4027529 8 4.5286922
-1.4599894 8 9.4502401
-2.9507868 0.25106072 10
-3.5101776 -8 0.69375455
-1 -2.3615448 12.669597
1 7.475399 19.472269
-4.2644701 8 0.1077038
-8 -0.27335489 7.2892928
-1 -7.7772751 15.312156
5.5019245 3.2934017 0
2.149909 -8 5.4722257
8 5.390276 1.6046925
-1 -0.64827824 14.016416
-8 6.7150393 0.0011940203
1 2.1621318 18.77125
-5.7264495 -0.35525489 10
-2.4837763 -5.6738586 10
1.385639 2.4757257 8
-1 -2.1256404 16.49243
-0.49615997 8 11.124284
-7.6921511 5.404283 10
8 1.3903313 5.1064858
-1 4.2454257 17.340008
-8 4.3099642 7.4750309
-8 -1.9451056 3.1848264
1 -2.8760929 12.544971
-1 -3.3927863 15.484088
6.5561295 -0.90370071 0
-5 4.4861317 6.0302854
-6.2237015 8 6.4794598
-0.064689636 1.0873609 8
1.7622478 -8 0.94517171
-8 4.0604572 6.4900217
5 2.0951257 7.300972
4.6826835 -6.8878717 10
1 5.7325335 15.732934
-0.96137315 8 13.82843
-5.703506 -6.1044149 10
-0.35144937 -8 15.82723
-6.8633962 8 7.4411402
5 0.74514133 6.5130358
-7.2362423 -1.602313 10
3.9143333 -0.32059866 8
2.709218 -5 2.0489125
5.8286476 -2.1771326 0
-4.1323438 -3.817471 8
-1 -4.4065847 17.709965
-1 -5.130024 10.602371
1 0.41084766 12.759748
2.1916766 0.56197977 8
-5 0.35068464 7.5266376
-2.6150475 -8 7.0540981
-1.3236067 5 5.6316981
-3.1049681 8 5.4712524
-1 -3.2732291 10.847929
5 -4.6500821 5.8812227
-5 -1.9239929 4.1542163
4.1529894 0.34725147 8
-8 1.1467726 8.2596321
-1 -2.310833 11.706136
2.1062791 5 2.3558035
-5 1.9868666 2.3724222
1.5492539 5.8708482 0
1 4.6503029 15.59206
1 -5.4334126 16.748804
-3.5813131 -4.89148 8
-8 -3.4370031 1.3072052
-5 3.3727083 7.9489164
-6.0200758 -8 8.6919661
5 -3.0386758 3.0610757
-1.2443615 -3.797286 8
8 -5.4449615 2.4506388
8 -4.311348 7.6671219
-2.3262358 -2.6528535 8
-5 4.7926846 2.969671
-8 -1.7193329 3.6920021
-0.81464005 -7.9534702 20
-6.8156514 -8 8.2121477
-8 -0.28345668 8.7771692
5 4.1364288 5.9786801
-2.9136608 -8 7.4562955
5 -3.0908937 0.24443436
1.7521884 4.4353409 8
8 3.4315939 1.0621564
-1 1.7296536 10.47267
-0.94423068 0.74440789 20
7.8531594 8 6.4425402
6.4474897 -4.3636999 0
-2.9658422 -0.99505806 10
2.2814775 -5 5.9534392
-1 -3.9357886 14.130718
-1 2.338985 19.73196
2.322484 -7.1636534 10
-1 5.2677732 14.177135
-4.5738153 -5 7.2546597
1 6.7056446 10.99561
1 -6.444418 17.087084
-1.1658664 1.4173346 8
-5 1.8890486 1.1032462
-1.6195784 -3.1518888 10
-3.3514042 8 6.7874389
1 5.9976959 18.667627
4.292336 -0.46553898 10
-4.3364067 -5 2.287941
8 4.517786 1.187808
2.8462148 -7.9930272 0
8 -6.5649757 4.8170133
-5 -0.96316719 3.3706498
-1.6795948 5.2221088 10
-0.24717784 -4.6512032 8
1 3.0922461 10.273502
1 -0.37872887 18.844868
1 -6.7248683 11.395242
5 2.5123434 0.273633
-8 6.3129125 1.3894454
7.8722658 -8 6.3657045
5.4157662 -8 9.2684555
4.1487665 8 7.9977102
-8 4.7199211 6.6114783
8 5.5823979 9.9073925
3.945514 6.2275591 0
8 3.2971258 5.7905059
-5.3835402 0.9460001 10
7.0609808 8 7.1616764
1.3989866 8 5.6124773
-3.7115331 5 4.814146
1 3.6296978 14.687707
4.3689671 8 0.82376719
4.2377052 -4.6143975 8
5 3.3125718 4.4216533
-3.2718191 -5 3.3040261
-3.2402916 3.9603009 10
-8 0.52490425 1.0328687
-2.9576139 -5 3.8986967
-8 0.31035197 9.473525
8 5.6728334 7.7797284
-6.3845763 2.6005752 10
1 6.7640228 12.590524
-8 -6.0285101 9.1891527
-8 1.0505573 3.4067974
-0.88315487 -5 3.8761692
-8 -1.2761323 1.6950808
0.73815918 5 2.7706921
0.79829264 -0.27390516 8
0.34209681 -6.2664762 0
1 3.8997021 18.285414
3.9732342 5 1.2099785
-7.7734213 8 2.7991762
1.0892541 5.9646931 10
0.6733216 8 19.30294
-2.0814834 -8 8.8720665
-7.3012719 -0.76281965 10
8 4.6229715 1.6188518
-8 2.243027 4.247683
-1.4265527 -7.7131672 10
-4.0202932 8 0.71758747
-8 2.9944286 8.1803598
8 3.8842492 7.8597908
-1.6515927 -5 6.8958054
1 -2.8519709 12.724607
6.8421178 3.4166584 10
-1 2.1784298 12.908695
-7.1264343 -7.0038328 10
7.8170233 -3.0431235 0
-4.0717907 3.300817 8
1 1.3119621 12.958586
0.067386985 8 13.511065
-0.90553319 -8 18.641846
-0.26329261 8 1.9359094
-8 -0.82160711 7.0218391
1 -5.4149957 19.699383
3.9623442 4.5557146 10
4.0909538 2.7170177 8
-8 -7.7473998 4.8033233
0.80023527 -5 4.9825521
-5.4840508 7.67623 0
1 3.6915383 18.827057
-8 -2.2483094 4.6719294
5.935461 -8 7.0265288
-5 1.8409741 2.0044427
-5.9293094 -5.5809212 0
-1.4692867 5.4647121 10
8 -7.1325483 9.1980686
-1 6.3679237 11.767603
-1 3.7396693 19.053205
0.43689823 -5 7.5271039
-1.931734 2.8108962 10
-8 -2.5209742 4.2388639
3.2231255 5 3.2920556
-2.5657279 4.9106159 10
1.7045867 -8 4.1335583
-4.6229677 -8 7.5946217
-5 -3.1697979 7.0963717
-8 -2.0988364 8.0083847
3.5121479 -5 3.7512851
1.5369396 5.4869652 10
-4.2228742 7.1880827 0
0.028140068 -3.859781 8
5 -4.6879606 1.8240229
-4.8124418 -8 5.4890628
-2.0693789 1.235744 8
4.5242295 8 2.6199241
-0.22729683 8 15.330883
-8 6.3833423 4.4184203
0.98574322 -8 10.743035
5 -4.1246452 5.1061044
2.6712792 8 0.41614592
1 7.1773157 15.514405
-1 0.61277568 18.300421
5 4.5568833 7.0640874
1 -2.545011 14.843792
8 -5.506259 9.905241
-1 -5.8708792 18.281002
1.1169327 5 3.7146912
-1 -4.4723496 14.783266
3.9762266 -5 7.1707988
-4.5028372 5 4.2412095
5.8520269 -8 3.8069675
-3.8432589 -5 4.4273281
1.1291659 7.3946638 0
-5.9489679 0.83037567 0
-4.7855577 -5 0.45130739
-5 2.6600933 6.2932429
1 1.9728575 12.795429
0.75359398 8 9.3577356
5 2.3607659 6.7678256
-2.4016147 -5 7.8169494
-1 -6.4644694 18.417294
8 1.6228361 9.3022766
0.17630005 1.005536 8
-3.9811034 1.847141 10
-7.713201 8 8.6626444
0.87819755 8 2.2489233
1.6523747 -3.9078715 8
8 5.7609787 7.2241163
-0.46713543 -8 3.1352477
4.4892778 5 3.5401049
5 2.6845658 1.4235328
1 -5.5020981 15.613556
5 -4.4266005 3.9725707
-6.1181498 4.6672344 10
0.23758447 -8 6.9829741
-2.9335217 -4.5978904 8
8 -4.9596691 0.47116408
-5.0858569 8 3.086257
-0.78575182 -8 3.9761624
0.072739512 8 18.277292
5 3.4051037 3.4002814
-1 7.9083862 12.606493
1 6.8145208 12.641822
-4.4931593 2.6922562 8
-4.1625175 3.7300029 10
8 -1.03389 2.7577572
-6.5221243 8 7.3929186
8 -5.7721686 1.9535465
8 3.9118478 7.4475679
1.9321637 3.7856965 8
-5 -2.8346486 2.7461066
7.7066855 8 9.3732195
3.6529939 8 0.76387465
-1 -1.4776173 13.013499
5.5128851 -4.2581787 0
1.8145108 -3.1659641 8
-1 -3.255403 18.396049
2.3609762 8 5.6016884
8 5.092907 1.9931718
-1.5159996 -4.7123556 10
-6.8739424 3.8004179 0
0.44195831 8 14.805912
-8 -4.8726172 9.6513596
7.9938784 8 2.8616664
0.849832 8 10.460343
-4.3547463 -7.1789455 10
-0.71096665 -3.5750198 20
1.6401575 8 0.96537352
1.222846 -0.10559654 10
5 2.9669442 5.3170261
-5.0000005 3.8083885 1.0667657
-8 4.3246155 4.3341527
5.883924 1.7291628 0
-1 -5.1533017 10.871881
-1 -3.0932918 10.04142
-1 6.7521791 17.511499
-4.8561139 -8 7.8697991
3.9207177 8 0.49005628
-5 -1.6933484 2.7324481
0.45820189 -5 7.7962461
8 7.0623846 6.7761865
8 -5.572073 2.0058298
1.2253885 -8 1.755479
-5 -0.4954887 0.65430975
-1.2926229 5 0.11828462
4.1352453 4.9999995 0.34926343
-5 -4.0420327 5.3000875
2.4287596 -8 5.2017608
-5.4893928 7.4084411 0
1 4.2391448 18.411755
-3.4345317 5 4.3835545
5.6700892 -0.65263283 10
-3.3636858 -5 0.49608946
5.6067495 0.003695488 0
1 1.8506756 10.92086
1 -1.1640425 10.711391
0.47034693 -8 19.444439
5 -3.7889745 0.43317163
1.4420371 -3.6574843 8
-1 4.8808837 13.54124
8 -2.1896181 3.4324713
-3.0468826 -8 2.4079926
5 2.4226856 5.007606
-1 -5.6239667 18.748457
-0.96603149 6.6937771 0
4.5119829 -2.9763794 10
-5 1.1587709 0.095366478
3.7511368 -1.9722786 8
-4.9999995 3.6231599 1.5775952
8 -4.5275173 6.3124523
-2.1149828 -8 4.3688483
-8 -5.180584 9.553503
5 1.5221789 6.5660062
0.010525465 -6.8718643 0
6.7422962 -5.5160103 10
-8 -4.4623933 5.0054712
0.91710246 5 4.5475039
8 7.4948359 1.7803755
-8 3.6155186 7.8277521
5.3443127 -8 2.0530894
1.1263676 1.0135899 10
-8 7.6342897 4.7443657
-1.7785681 6.8830099 10
5 0.76850891 0.22302262
-4.2627983 -8 3.134593
-7.4377632 -8 9.801198
7.2172136 -4.1943827 10
-4.1706328 1.4665799 8
2.3772359 -8 3.0048671
-8 -2.7935898 6.4838891
-5.0907016 -2.1089039 0
4.989666 5.1771412 0
-7.9409189 1.6645758 0
1.6582847 1.8969433 8
1 -7.0790167 17.790318
-1 2.4518809 10.696664
-0.68636441 -8 10.5807
7.1517181 6.1600342 0
-4.8186655 -6.3637695 10
-1 5.2009554 17.5928
-7.2079368 -8 4.5845451
-0.49508536 5 1.7433089
-4.6006794 -5 7.1225748
-5 2.8765426 0.48598766
-8 6.8030009 8.176878
-5.3061309 7.1182489 10
-2.7582834 5.7491994 0
6.3642693 8 7.3336716
8 2.518405 1.7946533
-3.3639958 5 1.5321256
-1 -5.8460855 13.782084
-4.392931 5.2489042 0
-4.2097068 -8 1.1005003
1.0954828 -3.468821 8
-2.1961088 5 4.9337974
-2.718883 -5 7.5293422
-3.0425522 5 7.9138179
-1 -7.5463166 15.407953
-1.6927233 -8 4.3969278
3.5236466 6.0703936 0
3.0584769 0.91751289 10
1 4.2853136 14.655032
0.96297282 5 6.6896129
-5 0.4879089 1.3322978
8 3.6337166 0.28208932
0.28096962 -3.0703738 8
1 -4.6202641 18.667439
-2.8899777 -5 1.0303454
5 1.5881953 7.4464188
-4.4773655 8 5.9710512
5 -0.40762746 7.0332737
8 4.9491825 7.8866625
-8 4.3756166 4.6771431
-7.2060966 4.7367287 0
2.8607006 -4.1907711 8
-8 -2.2608614 1.3692106
0.57627136 8 14.927376
3.9506445 8 5.1960831
-1.5590611 -7.9747114 10
4.1702328 5 3.3162513
-8 7.8653784 1.3113183
-2.4177659 6.7955332 0
1.3553975 -5.1623812 0
-8 -2.8854182 2.2946463
7.7093658 -5.8325992 0
-4.2035365 8 5.1885929
8 3.2737474 9.9495916
5 -1.8478565 7.0566716
2.6301208 5 7.8309288
-3.7848797 -5 4.2613568
1 -1.1365591 15.490398
1 -1.5659792 13.793098
8 3.5778303 3.19521
2.4097443 -3.9651613 10
5 -4.1664257 7.1846752
-1 -0.3732357 15.140737
-1.3652365 -8 4.9001718
1.6404922 -8 5.6652083
-6.2557011 -1.4129466 0
7.8764515 3.6649663 10
-8 3.4205871 7.1142788
6.6358008 -6.7251959 10
8 -4.5468206 6.7414284
1 5.8458366 19.617519
3.0408378 -8 7.6930342
-4.409646 8 6.0310364
-1.3083355 -1.5792236 10
-1 1.8329388 13.01963
-2.9957547 5 7.2012396
1.0708113 -4.1539001 8
1 0.60526657 19.094624
-1 2.7205935 19.532278
5.2176108 -1.6757441 10
1 -1.313499 19.037804
1 2.5193405 12.660579
5 0.31339425 2.3710065
4.3017139 4.2981944 8
1 -2.7787402 16.362747
-6.3676815 -2.4674301 0
1.1554599 -8 1.8528149
-0.43001747 -0.64286089 8
-4.5876684 5 7.3659797
5.1418533 4.9126616 10
3.1432464 -0.3705759 10
-3.0547261 -6.8832622 0
-4.6659012 -5 5.7003727
0.22223669 6.3747797 0
5.9071364 7.881 0
1 -1.7171373 11.335328
-3.9474056 -8 5.2265711
0.81733811 5 0.67598802
1 -3.2458079 12.019664
4.6736135 5 6.0721545
4.0480404 -8 2.7529953
1.7287471 -5 2.2919092
2.9919291 -5 3.9099193
8 4.955162 2.4532797
-2.7591934 -3.0181289 8
-8 -3.1929655 2.584152
-5.6612864 7.5740094 0
-8 4.9495401 7.4252415
-4.0157046 5 6.7873378
3.5878782 -3.5822811 10
6.1512051 -0.66535854 10
1 1.5936766 11.087032
-7.5057082 5.4117665 0
4.2926731 -5 2.2428594
-8 -1.7884378 1.0669349
2.3232198 -8 6.9785438
8 7.5199614 1.3058325
4.6751299 4.9470482 8
-3.8529565 -5 6.0541553
-1 -5.8123713 15.484972
-5.983335 -8 0.94151443
2.7923942 5 5.0804987
-2.4670196 -3.3417881 8
8 6.2090082 7.6660876
4.0756679 2.5154362 10
-5 4.1861253 0.16499424
5 4.2611332 4.8791208
1 -0.44200945 18.999437
1 -5.2600365 18.900326
-1 4.3044167 18.452642
1 6.8426876 17.133617
5 0.89203167 6.591424
-8 2.2748284 4.658505
5.6730499 4.4423904 0
-6.6921916 5.7833447 10
-1 -6.7732153 15.91857
6.8662858 5.3929105 10
8 7.963562 8.2730274
-6.1091456 8 0.56187153
1 3.4416199 14.453254
5 1.8097633 4.9395213
5.7322044 6.9966793 10
-8 -2.361383 4.1923642
-1 7.5419674 17.112038
-1.661818 -0.50589615 8
-1.92031 -8 0.17096864
6.596056 8 0.26006222
5 -0.70715332 4.929832
-1 7.5488153 17.6931
0.32597157 -8 17.079967
0.26501846 -8 0.75039536
-1 -6.393537 10.061257
5 -2.6063924 7.4437699
-1 0.063693285 16.905056
-1 2.8092241 13.404462
-1.4868586 -4.1608067 10
2.4915094 -8 9.180686
-6.4651017 8 4.0422063
5.2305927 8 9.4240093
1.8534992 8 1.5764153
5 1.8033204 7.3166723
-1 -2.9654629 16.683357
-1 -5.4794898 14.680287
-2.4193695 5 1.3617914
4.6776924 5.3948026 10
-8 2.3524909 7.7664299
-2.1512938 -0.94256812 8
4.5866299 5 0.82761049
-8 -3.4003608 5.8559427
1 -5.4549112 13.656459
-4.4738541 8 3.9693542
-4.4348044 4.4706616 8
8 4.7859497 5.6151962
5 1.8865975 5.3530335
-1 7.0628862 19.347805
-4.1137986 5 1.5554644
0.36668369 8 13.179812
-5.2932391 0.67930734 0
-1 2.1488776 19.314835
-0.72836077 -8 6.1447544
6.4851918 8 9.0840435
-4.7510996 -7.8163061 0
-0.57510149 5 5.4728398
3.6685593 0.38428521 10
-8 3.2615519 8.9358959
-8 5.7907538 6.5304861
7.3362989 0.95483398 10
1 4.6270809 15.026238
-4.4632487 4.006021 10
1 -5.1416783 15.806103
-4.4772058 -5.106308 10
1 -6.973546 19.182203
-1 5.4293842 19.247787
1.2594355 0.41962516 8
5 4.5418043 5.4441371
5.869277 1.837878 10
-7.10286 7.5466433 0
-7.6614709 0.87797666 10
1 -2.5205097 12.44017
-6.6845951 -7.7222433 0
-1 -2.5266585 14.615471
-8 -3.7961464 3.4459434
8 0.4961307 6.7132602
5.4019036 7.9759803 0
3.3084807 -3.1651611 10
8 -4.6413107 9.884922
-8 7.7887545 6.4753098
1 4.8691254 17.123335
-5.8972235 5.864397 0
-8 -6.5273867 0.11803534
1.6354221 -8 5.4546976
1 3.7637854 12.533655
-1 -7.7914538 11.558034
-5.5126095 -0.21246791 10
-7.7905831 8 3.0460515
2.9011331 -5 2.9453678
0.0084451437 8 18.508707
-1 -4.4962001 15.268055
5.9617052 -4.46451 10
5.2616143 -4.8875198 10
3.4347446 4.4786539 10
5 3.3770013 6.2690248
1.1193409 -8 0.87641841
-4.6550493 -2.8886995 10
3.4023685 1.9419737 8
-0.40759951 8 3.5081224
-1 7.9483395 12.881819
5.4129205 6.8782067 0
5 -0.56795812 0.51424497
-5 -0.36053902 0.89130497
8 -5.3816872 5.8531437
2.0904605 -5 5.4051895
0.8809036 -8 14.696232
5.3251753 8 7.3439436
4.8260384 4.9506111 10
-0.97244596 -5 1.339735
-0.86471009 8 8.9105749
-0.23257038 8 1.7357808
6.9752703 -0.71945238 10
8 -1.1584568 2.4708374
-4.2965355 -2.318625 8
-5.1798472 8 4.1333623
-0.4905231 -8 7.0760283
-0.51684201 8 5.6928349
1 5.7760363 10.622963
-1.531467 -8 1.609502
1 6.0724697 10.607998
0.6161387 8 19.367378
-5.2543449 -4.6300621 10
-2.6665568 -3.6300645 8
7.4130626 7.919735 10
8 -4.7338104 7.09865
8 -5.2911944 5.5469003
1.317993 -5 1.6100731
1.3415439 7.5759621 0
8 0.57894397 7.3976307
-5.9387827 2.9560771 10
0.51828682 8 5.9553666
-8 -6.7032638 6.0009155
3.3302333 8 4.1273017
-5 -3.1194825 0.37895489
-1.1841207 -5 5.2379603
2.6346867 -8 9.3534737
8 4.4489336 3.5591505
1 7.0803156 19.457857
-6.0186806 -8 6.737483
5 -2.6048462 6.5962853
-7.9116235 4.1883874 10
4.106791 -5 6.8117914
1 0.75310612 15.176739
-8 5.5879221 9.9469681
-7.005374 8 3.4473333
-5 -3.9487686 0.42908955
3.8838794 -1.2004614 10
-3.6189487 1.6198728 8
1 -6.5052137 15.233192
0.37841198 -8 10.485676
-1 6.3714423 14.59446
3.2105863 5 0.27125373
8 7.2687674 1.3358701
3.1732757 -5.3814778 0
-4.2672772 1.5370128 10
8 3.6273239 7.7179675
3.8534505 7.0433736 10
2.1997828 8 3.7056136
0.5918684 -3.0058689 8
-1.2358055 -8 8.9948921
1.1899371 0.84973598 8
4.5532904 5 3.2068768
0.55154735 8 12.156382
-4.6582556 5 0.1857843
1 -6.6266904 16.442623
5 -4.1448612 5.7555494
6.4900894 4.0840859 10
-1 2.4172778 17.017981
0.27874851 3.3291779 8
-1 -4.1405163 10.395174
3.3965611 -6.6433492 0
7.0169668 -3.0492172 0
0.83701539 -8 13.307638
2.4970806 -7.2359724 10
8 -1.8708675 4.7007837
-5 2.9104395 2.0990264
5 -3.8173997 2.4382827
3.0945413 8 7.9311047
-7.2104168 8 3.3906121
8 0.95908332 9.3242416
5.1548467 0.73566067 10
-4.9233503 1.3083131 8
-1 -3.6950922 10.714659
1 -1.6670206 13.94165
-8 2.6658545 8.0373659
8 -3.8185298 6.8714905
7.1141186 4.4907136 10
-1.4000849 5 5.3133092
-1 -4.7416396 18.308558
1 -1.2127116 12.710186
5 -0.26347965 6.7838922
-0.1144574 8 1.6881591
3.3618915 8 4.5796175
-2.7166905 -7.2303176 0
-0.59117436 -7.9550257 0
-5.1449537 -5.4867086 10
-1 -4.5220256 15.210873
-1.2540076 8 6.6519356
0.32982883 -5 1.1895423
2.6966419 -2.9106586 8
-1 -3.7487273 15.935945
2.9998012 1.8919346 8
3.8822844 -7.2398748 10
-5 0.1339922 6.2561355
-8 5.3940363 6.2182913
-0.56169724 0.50896132 8
-2.5522323 8 3.4117365
-5 3.3957539 7.2382045
6.208147 1.5587267 10
-4.4411621 -8 6.3844924
4.2054071 5 0.50753951
1.4323556 8 8.8810225
7.1756139 3.22961 0
-2.136816 5 3.6175854
8 -0.75795269 4.4474626
-1.6409241 1.343523 10
-5 -3.5826068 2.7006006
8 -2.8715181 9.7169456
6.5813394 3.7110155 0
3.6750641 -2.9194946 8
-2.1603847 -4.0886374 10
-4.1473122 -5 6.4860544
-0.68668419 0.14348125 20
-8 5.8737688 1.460094
7.0997181 -4.0581288 0
-4.4327679 5.7463999 0
6.4899979 -8 6.3393145
1.3959906 6.6970835 0
-3.0824368 8 5.603282
-1 -1.2352798 14.818908
8 2.3166113 2.8899877
-2.9727077 1.6941652 10
-1.9848633 -3.5709863 8
6.4774742 8 8.5730162
1.6315092 5 5.8537397
6.5744305 -4.1187301 10
8 -7.0789218 7.5452952
4.49193 5.0000005 5.1011953
2.5680881 8 1.1967635
-2.278033 6.9034047 0
-6.8799863 8 0.82256973
4.7523966 -5.0000005 6.4700222
-3.4503269 -3.7918415 8
2.4089661 -1.1981497 10
2.0029099 -8 0.45856276
-6.9350815 -2.9774814 10
-8 7.3305035 3.8094084
-5.3285756 -7.8302393 10
3.2584753 8 5.0907717
-1 2.6559019 14.584064
5.2180505 -8 9.4456158
-0.64387703 -8 4.2199359
0.4557465 8 2.2404246
8 -3.3967652 9.3331461
-4.8607945 5 4.0232038
0.24157619 -5 2.4925728
5.2324357 -3.120369 10
8 5.2147608 7.0107613
4.1219788 5 7.115665
-2.8990884 -0.34286499 8
4.6016469 -5.4965334 10
2.2113647 3.0290966 8
8 -2.8351824 2.6364858
1 3.5383573 19.558767
-5 -3.7388456 2.8327074
-5 -1.3353167 7.0301361
1.5190928 -5.3712139 0
-3.0755384 4.0415778 10
-8 3.917521 9.4352474
5.7927504 -8 9.1789598
1 -7.4615884 14.226501
-0.023897976 -8 15.699625
4.9793062 -5 1.1474261
4.2514496 -4.6380787 10
8 -7.9519825 4.3209419
-5 -4.8330889 7.8851061
-6.1854997 -4.9767327 0
8 3.0183282 9.1319981
-7.4492793 -2.862164 0
-3.6720099 -8 3.515866
8 5.791667 9.9493456
2.1247091 -0.058443069 10
8 7.7598619 0.51938689
8 3.3532648 4.8012986
-8 -7.7914696 0.025480703
-8 -4.8630891 0.023007475
-2.2669125 -8 6.2819128
-4.7915821 -1.7372372 8
-1.9024384 5 7.1961293
-1 -0.066689596 19.619074
-5.3429804 5.3472195 10
-7.6395488 0.094765306 10
6.0082684 3.6065671 10
-1 7.9264231 18.486227
-6.3378344 8 1.4477491
-1.5640531 8 1.3971514
-1.659889 8 0.57489574
-1 -6.5905347 19.147188
-1 3.8859968 18.204628
-2.3756859 8 4.6342659
5 -3.4398646 4.5401502
-8 -6.3990002 8.6789675
-1 2.9697361 12.351587
-8 -5.629046 9.5052414
-8 -1.9495885 4.2617764
-8 3.9463787 4.2659988
0.10918913 8 15.817542
1.8587921 8 3.6902416
-3.1559801 5.4171152 0
2.0834367 8 4.5389385
3.6022079 -8 0.49323875
-7.5205216 3.8368471 0
8 5.7042227 7.6422753
1 6.3661528 17.144913
-8 7.6617227 9.1340981
1 -1.2727402 14.642483
3.6619816 5.7402229 10
-8 0.64950752 9.2609568
8 -0.28405976 2.9132268
8 3.4587669 6.4622235
