# .PCD v0.7 - Point Cloud Data file format
VERSION 0.7
FIELDS x y z
SIZE 4 4 4
TYPE F F F
COUNT 1 1 1
WIDTH 1978
HEIGHT 1
VIEWPOINT 0 0 0 1 0 0 0
POINTS 1978
DATA ascii
4.9093003 7.6371222 0
-5.2895226 -8 1.2913016
1.4003968 -3.2058182 8
-6.6639848 2.6194718 0
-1.6606199 5 7.3098021
-4.0708466 2.9244907 8
8 5.5011044 1.7332959
-0.60829234 2.9231145 12.299601
-3.0907898 5 5.7691064
-6.9839587 -1.256249 0
2.2780704 -1.9316244 15.266039
-0.95744658 -5 4.8715029
2.3330166 -1.8727881 14.087399
-6.1406364 8 3.288476
-5 3.39433 1.7914935
-5.1217041 8 3.1584342
-8 -1.2147305 4.8311524
-3.8191924 5.7391038 10
-4.1159501 5 0.067690529
1.2478365 -0.94031227 11.460402
-7.1412897 -7.7251024 10
-0.76330483 -2.8849077 11.270235
1.6315614 -2.6670175 8
-5 4.1495399 3.8225732
2.7239552 1.6894678 8
-8 4.8431911 9.9527893
5.7810125 -6.6798449 10
-1.2912846 -8 0.23850138
8 -1.5125213 9.0306234
8 -6.8282928 1.3803931
3.0091195 7.9554243 10
-3.1797357 2.5904617 10
8 5.7591906 1.9780661
2.3864555 -8 6.9589086
8 -0.72222447 7.6957827
-5 2.2832127 5.9859686
8 5.9214916 6.3487659
8 -6.5869412 1.6015974
8 2.5727129 2.2966778
7.8177891 8 9.48736
-6.9083519 4.140954 0
1.5030944 -5.9933567 0
-7.1374335 5.9898987 10
0.70260167 5.9967699 0
8 6.5487337 6.9430151
0.34062815 -5.3387504 10
5 -4.8291273 2.5397966
8 4.1953459 9.2695532
-0.4940663 2.9421439 18.275391
-8 -0.01464951 2.7189405
-1.8505695 2.947612 10
8 -6.2383904 4.1106997
-0.18844944 -2.9796724 11.405396
-2.902986 -5.5953279 0
-5 3.7517602 2.7568889
8 7.8141298 8.0776253
-4.1771784 -5 7.4801183
5 -0.85539806 1.9738607
-5 -1.8932559 5.1456923
4.9585986 -8 2.1609364
5.9838324 2.7454805 0
6.6966314 -8 0.011992586
2.6998382 3.6156893 10
5.0595741 1.7812557 0
-1.6368456 5 2.1811256
-4.8353233 -8 6.2934971
-0.42322683 -2.8394222 8
2.3758888 5 0.075911269
8 6.7594147 0.85235143
-7.8161049 8 2.6591792
5 -0.39742076 1.7152811
-0.3469193 8 2.4287601
2.8694315 8 0.78695953
-8 -3.7079492 5.720427
-8 2.979125 1.6575795
-2.3244061 -1.8716667 15.40452
-1.5331173 8 9.7092018
-1.0808938 2.7399685 20
-2.7495224 5 0.87707084
-0.75253987 -4.376503 8
-7.6680503 5.0946012 10
-1.1907548 0.53208643 20
2.0850003 -1.5711604 12.345959
4.1088686 3.5836964 8
-5.2422719 1.3060888 0
-0.065773249 -5 1.9648075
8 7.8306894 0.26218742
6.6373 7.0628352 0
7.7158885 5.8371911 0
-6.4427614 8 3.1823773
-7.6219072 4.4570389 10
8 -7.2333851 0.33544511
-6.7119465 0.92066222 0
0.82089496 -8 7.7336073
6.2543898 -7.1419349 10
-1.7458724 6.0886388 0
-4.957015 -8 5.9471006
-4.7608213 -5.658617 10
1.8279848 6.0172291 0
8 5.5600052 1.9601464
2.0850422 -5 0.19406652
-8 -4.6137061 7.0304418
-5 3.8842022 0.33463335
-7.2933583 4.8418169 10
8 0.53013229 3.008141
2.3331571 1.8593882 11.146955
-3.6219614 8 0.22864163
-8 5.3552375 2.2498972
2.3442802 1.5223933 12.05216
-8 -3.7629833 4.1875863
-3.2199266 5.1281257 10
8 -7.7381706 8.0848494
-4.0417433 5 0.023135651
2.5558333 -5 6.1798692
3.6797948 8 2.3590617
4.3280454 5 3.3822417
-3.8125634 7.6442814 10
-8 -1.6376119 1.9468268
8 -0.71940684 9.3555317
8 1.064147 0.29061589
4.2402368 -8 7.7671576
-5 -0.70599437 4.7649941
2.4208355 -5 7.7545619
-4.3587465 -5 7.5566754
2.5930378 5 1.7447917
-6.7350998 4.7583694 10
4.3436146 8 3.6918962
-6.9458599 -6.9620347 0
-2.9808946 0.22699139 19.477039
8 -0.95091569 6.9172196
0.79538774 0.51653087 11.540283
0.44602296 -2.9518659 17.463688
-2.972436 0.28686297 14.774263
8 -6.4891548 7.9784265
8 7.7743101 5.2141643
-8 -3.3271616 4.5759068
-2.6415391 -5 2.10783
-6.0817637 -8 2.2451715
-1.0799841 -8 8.7243557
-0.21802378 -6.3457685 0
-8 4.5161819 7.7513413
-3.6944816 2.7638845 10
8 -3.1827917 7.0933561
-8 1.2696979 9.7083626
1.7238141 8 3.1030631
-0.6833744 5 1.2963595
8 1.5457449 2.1601305
8 -3.1471646 5.6798124
-8 -3.242538 1.4762632
8 -1.3514576 2.1667609
8 -4.2748508 7.7382135
-2.6169491 8 4.3336916
0.51353937 -0.3869797 11.079783
5.846611 -8 1.7216188
-2.0951025 -2.1421323 13.213018
0.5431273 6.662312 10
-8 4.1312537 9.432374
-6.6670218 2.9302897 0
5 -1.5628492 5.6304007
-8 5.7120366 0.45201916
8 4.8053379 3.6084015
-8 -5.6855526 1.6231744
-3.0767949 -1.3611892 10
-0.87093711 2.8635659 19.724682
2.4061422 -8 3.6121554
-8 5.8215971 7.5889897
-2.0023739 5.9300699 0
-0.064648628 7.4497442 10
1.5107723 0.981107 17.2335
-2.9605083 0.37128595 16.896935
0.37929034 1.8626366 8
-6.0958347 8 4.6676054
-7.4540625 7.7896652 10
-3.4427137 2.9083331 10
-5.5221672 5.7725248 10
-5 4.1885624 1.5841274
8 -7.9788289 4.1953273
3.9995863 8 2.0219402
8 0.4518261 2.4986844
-5.0820613 -6.279942 10
1.0078335 1.3159497 8
5.3003035 3.4073217 10
-2.8997443 -0.71173918 12.045794
-5 2.3853536 0.57214165
8 -4.6744595 8.5759706
0.25997305 5 7.4837875
-8 5.5309916 5.3520255
-8 -0.47458053 3.7218959
1.4678895 8 4.0980463
-2.5878382 -5 6.0625086
5.8304062 1.3113052 0
5 3.8803332 0.29160023
-8 3.0736639 4.4910097
-2.9635208 -8 5.7794471
-0.052748099 1.3369259 20
8 6.5208111 4.1123924
4.2665815 -4.3380189 8
-5 4.4658165 6.0454798
-0.76957798 -8 4.9671941
5 4.1133385 2.1236191
8 3.8549404 1.4596567
1.6873565 -8 6.3844962
1.5028526 -8 2.4393809
-2.903079 0.7484175 12.472101
-6.5715671 -8 7.115438
-5 -3.0170593 7.5212054
-1.9526567 -2.8426967 10
1.6952777 -8 4.7602081
5 1.6983304 2.3007147
-2.9850945 -1.7488394 8
0.89392221 -0.67361873 18.251717
-1.7273797 -5 6.5290556
5 -3.878026 5.1183758
-4.5111971 6.8805652 0
0.99517846 -6.4641562 0
6.3166676 4.3067775 10
-8 0.9544096 1.6417301
8 -7.6808801 3.2231131
-8 7.4818459 5.5908446
-1.0913799 -2.784936 14.493579
7.8814979 7.2788811 0
-3.5960062 -5 4.3283749
8 4.4650116 0.24603611
-2.2589431 1.9567184 16.842754
-3.8784351 8 8.0435829
2.3021405 1.4950274 10.634262
2.3921278 5 5.5088944
-5.3481979 -8 6.9456534
-1.3879027 -3.2826281 10
-3.3158503 -8 4.9994917
5 -2.0746467 4.6045752
5 -4.4238358 5.6124349
4.125627 8 6.4537716
-3.3677659 8 0.9204942
1.7961547 -2.3845851 15.112429
-6.9715881 8 2.6157026
3.7172894 1.4491949 10
8 1.241649 6.0623183
7.3309107 8 6.2326393
-2.1637826 -5.5786366 0
5 -4.5676355 2.6734023
6.4755368 -7.8245029 10
2.3184476 5.584024 10
3.4699631 -1.9595561 8
-5 1.2348628 7.4010334
-8 2.7883828 8.924921
4.0026999 7.1071358 10
-5.4373493 8 5.5727396
-8 6.5100489 1.4860959
-2.415184 -8 0.72073519
3.156157 6.8196692 0
8 -7.3010988 2.5803471
-4.2342076 6.0677457 10
6.1603794 -8 8.2487555
-5 3.0018377 4.8701267
2.0483851 -1.5435691 15.919586
5.118269 8 8.9575348
0.83428383 5 5.3434987
-2.7862806 8 4.505444
2.5749378 -2.7859812 8
4.7459974 5 1.6571343
-0.21141791 1.2192941 20
4.6677551 -1.4744952 8
4.9201574 8 9.0734577
8 6.1351862 1.4042356
-8 6.8804698 5.6550412
-5.0555787 8 1.1531389
-5 -1.9374931 1.3508973
2.7956276 5 0.37942693
-8 -6.3509789 2.5977895
-5 -0.57483435 0.14721632
4.0526733 5 6.841465
2.1908343 -1.6509122 19.674414
-7.8055792 -0.39110279 10
-5 2.7038548 0.76562929
-2.1905775 -1.670701 20
0.63142419 -5 4.6393933
-5 4.7590847 5.8858294
-3.7487268 -8 1.8247741
1.8128382 -2.2121322 20
-3.0914922 8 1.6678143
-5 0.61274898 1.8851986
2.1730256 5 1.322193
-4.5099211 5 5.3812089
-0.27881718 -3.7955976 8
5 3.4210677 3.121856
-8 4.3995099 9.8567677
-1.9802547 -8 2.2072663
5 0.2543543 3.0551589
1.8435282 2.3458643 11.30363
8 -3.3071842 0.54805487
-3.4850349 8 0.69089293
-5.4372687 -8 0.24399613
-1.9780382 -2.2420588 16.549467
2.2311985 1.9851093 11.952119
-3.1509161 8 8.6019773
2.6124263 -3.2564654 8
-5 -0.91582501 1.2511063
8 4.1122856 2.326906
7.5058899 -8 4.5432749
8 -5.9037757 2.5567291
-5 -4.9415774 5.1267586
8 -0.39235139 3.6286502
8 7.62953 4.1489444
2.2418222 4.4346623 8
8 -7.1204243 9.5647717
6.8382883 8 9.3738508
-5.8608313 -8 8.8717117
-0.58397627 -2.9278231 14.454716
-2.8168149 0.80328465 8
-8 -1.2117578 4.2384768
-1.6912352 -8 8.8213177
-5.9750414 -8 5.7291937
-2.5412457 -1.761245 8
3.1054513 8 1.0772324
-6.1280527 -2.0880337 0
-8 -1.0859628 3.164088
5.7458401 -8 8.3149118
2.7019925 -0.7823053 8
-3.8473082 8 8.9590683
-8 2.3440857 7.5298877
-1.3777518 6.3618984 0
-8 7.4625306 9.2559252
-4.3158321 -5 6.6217232
8 -0.15528393 2.9967813
4.995245 5 6.6190329
-4.7524414 -0.013247609 10
0.59330648 -0.44708851 13.370707
-5 4.050539 3.0855601
0.81930256 -7.6854963 10
-8 -4.1639099 5.4924498
-2.6081107 -0.56160963 20
8 -6.6494002 1.6621499
8 5.0907001 7.8526211
6.4672537 8 5.2142162
-4.5848103 1.7886803 8
-2.3510799 1.4317098 8
-5 4.9968634 3.2259943
1.187894 -5.579977 0
0.53821003 -5 0.13226032
0.83549023 -2.8782167 18.083206
-8 0.66316128 9.8227253
4.0368776 -2.6470485 10
7.7512426 8 7.5595241
5.5333252 2.1577342 10
8 1.6077747 2.5476167
-1.0124178 8 8.9342594
-2.6229267 -4.548758 8
-3.5795479 8 6.8682032
8 -3.2211177 7.3984938
-8 1.0028579 9.8505678
2.4524379 -5 7.0544953
7.3940234 8 4.2435875
-5 3.3051662 2.1887281
4.1093216 -5 7.6649723
-2.3350167 -8 0.79511249
8 7.430954 2.002912
3.9723735 8 0.47147155
-6.1767979 -8 5.3738718
-2.4183874 -1.7608151 10.556347
-7.4093666 7.4695778 10
5 -2.5397243 6.9770656
5.370697 8 6.4799776
-5.6244545 3.2719066 0
8 5.4133291 1.3793818
-8 1.9897087 9.0379601
0.9594574 -2.7410688 8
-1.6741843 -8 8.3919697
6.3598194 -7.4916878 0
-5.2740297 0.12661135 10
-1.7129378 8 0.7746923
-5.22577 8 5.19452
8 -4.366168 1.2322282
-8 1.5780218 2.9552701
-5.032753 -8 2.1239803
2.4651232 8 6.3343577
-8 4.2119026 1.009169
1.1348288 0.73696637 19.982922
-6.1484728 -8 8.6767921
4.9616041 0.41226417 8
-2.5582776 1.5360961 14.237614
-5.6619792 8 1.3840258
-5 -4.7712421 3.7057486
6.5813065 1.7175275 10
-5 1.8556786 5.6602941
5 1.3454162 2.0959656
-4.1014891 -5 6.702436
6.6435885 -8 6.0363793
-3.2857475 -8 0.99832833
3.0026188 -3.9464488 8
-6.245594 -1.5695165 0
-5 3.3761816 7.6163721
-5 1.9272466 3.7377181
-5 -0.24272668 0.84150267
3.956079 3.2860739 10
-0.2030654 5 1.0055166
8 -3.1075044 8.2332745
-1.4260464 8 4.7433133
8 2.9045992 5.1527743
-2.715786 8 5.957942
-1.6417458 4.5143514 10
4.3276181 6.3415036 0
-7.8524604 -1.1887226 0
2.1626081 2.0696855 16.006861
0.048150778 -8 6.8547988
-4.9882903 -8 5.9473839
4.7227268 -4.1858797 8
1.4349597 -1.0813197 14.412027
-1.1481535 -2.7578053 10.538256
-0.39536071 7.7064381 0
4.4961596 5 5.735076
0.63391161 -0.47768667 10.784623
-8 -7.0918126 7.0289087
-1.1400462 -2.0672312 8
-2.8733373 0.82958108 14.207075
2.2375469 1.7757726 8
0.42227927 -2.956356 12.806288
8 -5.7592006 7.592968
5 -1.9136808 7.505383
8 -2.4334524 7.3847079
-5 0.090507507 4.5774264
2.8399239 -5 0.47270918
7.9264441 -3.6129165 0
8 5.5203805 8.7664909
-3.028446 -5 2.9144645
8 4.5736303 5.752604
8 -5.909977 6.0710783
1.3350391 -1.0060241 16.369741
3.2641335 0.99432629 8
-6.394268 2.6515551 10
-4.9359179 -5 7.2465034
3.9062521 -3.1343141 8
4.4683585 -4.9934812 10
-2.6782537 -0.88600796 20
2.2412612 -5 1.1965375
-8 7.5230713 4.8373008
-5 4.3167028 2.1567669
1.9384022 1.5021594 8
-2.8828526 8 8.2712088
2.4526842 1.7120037 11.653107
7.9205899 -3.4216108 10
-1.9598408 -7.1989923 10
-8 -4.3817344 0.63489586
-5 2.9315109 7.8011513
-2.487587 8 7.9804683
-5 1.6212134 7.764915
-0.53802991 2.9348197 16.513565
-2.1390002 5 3.2934399
-3.2704401 -0.71534193 8
-2.9742386 -0.23402867 17.80587
-2.9093168 0.73139471 12.794279
-0.53219223 2.9357924 11.456318
3.6157517 -5.9342475 0
8 3.0215483 5.6748266
7.8423586 3.4745946 0
-4.1052046 -2.7124631 10
-6.8063436 -8 5.7855091
-0.09843564 -0.29710364 8
2.8163371 6.6400576 10
-8 4.4273872 9.6067562
8 4.6983099 2.6010094
8 1.0056705 0.32462668
-8 5.0223432 6.9532251
2.4475141 -5.9358377 10
-8 -4.1363525 1.4559729
6.8562579 7.5238709 10.000001
-0.92535591 -1.4997796 8
5 2.6702366 3.0121143
1.1655421 5 2.1326892
2.8661065 6.0031238 0
-6.84024 7.2880678 10
0.92841607 -0.69961166 16.706213
2.1568956 -2.0613794 12.738363
-2.5471518 -6.412981 0
-1.8487182 -2.3417385 11.239993
4.125701 5 1.1384505
-1.82381 2.3699305 19.052532
5 2.0792425 7.4976954
0.40571088 -4.0983925 10.000001
-0.0086421967 -5 6.3247237
6.2865496 -0.7802887 10
-1.4356645 -5.1088719 0
-1.4908798 5 7.3341317
-2.262368 -8 5.5396771
-2.9812551 0.22444057 19.770123
-8 -5.3369703 9.6306715
2.7549362 -6.1100731 0
-8 -1.9987249 0.55254221
-1.3156041 2.6880333 11.742137
4.3040013 -5 2.3937397
-6.4271269 8 6.7749605
-3.9737153 0.7568475 8
-8 -3.3596256 4.4916196
1.6530799 -2.4843028 14.267113
-8 7.9538908 2.65189
2.353811 -8 0.32046419
6.0434337 -1.0084419 10
7.3402376 5.0915313 0
8 -1.9856429 8.278532
-7.0368214 -4.3944526 0
8 3.1737957 6.914063
-0.15475512 -8 6.6958089
2.0631595 -1.2526819 8
1.4888921 0.96689785 16.604918
8 -1.7470684 9.5826607
8 -7.5266666 4.5724192
-2.0259991 6.4227424 0
-8 3.3412097 1.051234
-8 1.9631262 4.9129224
-1.7950773 -2.3830848 17.007103
2.2837961 5 6.9073863
-0.84137821 5 3.0543096
5.7993979 -8 9.6216774
1.1369224 0.73832607 12.488554
-3.402597 -5.540638 0
-2.7711167 8 1.4236981
0.28411508 8 7.2310886
-8 -3.1458356 5.2049513
4.9791903 8 4.4032331
-4.0587125 5 1.6287366
8 -3.59196 3.0254493
-1.5242302 -2.5780907 18.016514
7.8421888 8 9.3051167
-5.6051989 -3.2595625 0
-2.9700568 0.30370158 17.258553
-3.5841842 -8 6.8472862
-3.3931725 -2.8171337 8
-7.7102365 8 1.1670244
-1.7598143 2.7141714 8
2.2686172 6.9505615 10
5 -0.31005561 7.1007247
5.1896372 -8 5.4531965
4.3209343 8 0.74519336
5.1868505 0.36119437 0
-7.9819617 -8 0.86528033
-8 4.3526211 1.9094983
1.6143333 1.0483602 18.76742
6.478405 4.2845755 0
8 -1.279647 7.3528981
3.7626972 -3.4722743 8
-5.6675138 -2.6622827 0
5.0000005 -2.3764515 6.8085084
-8 -4.1113963 2.4554696
4.6353593 8 2.6636653
-0.65244484 -4.9944935 10
-2.1884298 -5.6716623 10
1.7531617 2.4187157 13.595142
-8 -5.4458833 0.98858774
6.4254799 -0.020424366 10
-1.7761251 -0.87751943 20
-5 4.3890772 7.597857
-1.1343081 8 1.4889783
-2.1504526 6.0251164 0
-3.2282429 7.6915965 0
-5 1.0016557 3.1579218
-8 1.2044632 7.5756745
8 -0.20581913 0.82617593
7.5905104 -8 4.6900764
-6.1051812 -0.90304184 10
-1.9912906 -5 7.7018461
-6.6446824 -8 4.9317164
1.0879271 -8 3.4974213
-5 -3.7820315 5.3190546
7.3300977 -1.2306576 0
-5 0.40320992 3.0628858
-5 -1.976447 2.6180205
8 7.9513884 6.8464894
-2.3448992 1.8686104 16.348629
-5 1.147951 5.4983525
-2.1602607 2.1629066 10
4.3225431 -4.6205769 10
-8 6.1949215 5.6883087
8 -0.53855896 9.7379532
-1.099191 0.23120621 8
3.4964542 -7.8491383 0
4.6401763 8 4.524538
-5 -1.563271 0.71574402
-2.5586464 -6.1133499 0
-0.44420624 8 9.4128113
4.3745928 5 5.3531666
5 -1.1926033 3.8307736
-8 4.7477345 8.7786779
-1.1894644 -1.3275423 20
5 -0.037229776 0.4323383
-6.5138927 0.49261367 0
4.4423094 8 6.9603896
-5 4.3507166 4.7130017
7.1704035 -8 5.3386436
2.0653887 -1.5563822 15.456271
8 4.7454987 7.1886444
8 -0.69996214 7.4481611
-8 0.70554245 3.1939435
-3.3028402 -0.58655834 8
7.2872791 -8 5.9323354
-8 5.5130701 7.5728621
-7.8980536 1.4625432 0
-4.857645 -8 9.6488132
-1.6821147 -2.4701562 19.690659
-3.2346525 -5 7.2268915
-4.5821495 -8 4.4245677
-8 -7.6661105 8.9382086
-2.0309899 -2.2012434 14.259971
5.7842622 -8 7.5519214
-0.83636475 5 7.5999737
4.529583 0.7675162 8
1.5611967 -5 3.29776
-1.9299341 -2.2791371 16.29895
8 -0.099075317 2.7910371
1.3372283 -2.6741157 17.513069
8 -0.049623489 2.1817331
-8 -5.7980957 5.7826548
-8 -7.6662531 2.5136709
-2.973763 -0.24075985 16.018509
5 -2.3793793 0.57715279
-7.7241335 4.4144368 0
-4.4688234 -5 0.71088278
-4.6590204 8 6.4563909
-4.2049642 5 3.1172066
-3.6170518 5.6736536 0
-1.3096983 -2.6806083 13.956829
-2.1123693 -8 6.5605826
-3.5263624 8 6.4145432
-4.7158132 6.9795647 0
3.8631904 8 6.8389711
-6.9196963 -8 7.2773352
5 3.8326092 4.760159
1.2444687 5 3.9860857
-5.5096421 -2.0365388 0
-7.1540442 2.5853002 10
-3.6860409 -8 2.2560842
-0.37881848 -3.2738063 10
0.74021983 0.48070437 14.964922
-7.0669365 -8 0.54430896
5 -0.79146385 4.8528996
1.9837837 2.2327933 15.823367
8 1.1617346 9.5618629
-0.31159878 8 8.4024754
1.7806427 -5 1.2503138
-7.5932579 8 5.725729
3.9853067 -5 6.2922392
8 -0.063389063 2.7895632
-5 4.4108849 0.92690802
-5.8165097 -7.5284448 0
-6.9722977 8 4.5794644
3.6627507 -7.8864751 0
-8 4.3568711 1.1142092
-2.1829414 0.80218089 8
1.1403345 0.74054182 18.30357
-8 -1.8158889 2.1562786
8 -4.6306124 5.2157869
-8 -6.5759406 1.6132877
2.1047719 -1.5860592 14.942901
-0.64155793 2.9175727 15.195417
-5 2.970561 3.794975
-7.4506569 -8 2.9160652
2.7165098 -8 0.0090749012
-7.6149411 5.6469984 0
-8 5.1475501 6.6385136
1.4663715 8 1.4165348
8 0.67978001 9.7173309
-4.8532338 5 4.9965897
-4.9646373 -5.2908988 0
-3.2150216 5 0.14042249
1.4499546 8 3.3367176
-2.8590391 0.86859918 12.223669
8 2.9384089 8.3865395
8 -2.561065 9.5020599
-8 -3.9646161 4.3378849
5 -2.6733587 3.9886615
4.1265965 8 6.2404871
4.3575344 7.9605718 10
2.6344948 -1.0668452 10
-8 5.4613771 4.8850398
3.8599491 2.0983539 8
8 1.0151165 8.6224165
7.2486773 4.7762146 10
-0.74689364 -8 2.6993504
3.6163998 -3.7731907 8
8 -3.1120954 5.2685013
-0.19041377 5 3.6282251
8 -0.22770524 2.8527961
8 -6.8111224 3.6539593
0.82092798 -0.61861366 16.233515
4.4691143 8 2.8496571
8 -3.5724578 9.309557
-1.213295 8 3.4635882
0.95948899 5 2.6680825
8 3.6808825 2.1189394
2.8555565 8 9.6673155
-4.9596891 -5 6.7444534
7.0916543 8 2.7580261
0.36283514 -0.82369721 20
-8 -4.1422086 0.82747072
8 -3.4593468 1.7299635
5 0.88556647 1.7490464
1.8942637 -2.3162072 18.384268
8 7.3318043 6.7113872
5.4136672 -8 5.3101573
-7.1701574 8 3.7114878
-3.3194246 6.6132026 10
4.7788563 -8 0.34648639
-7.4473748 -7.72191 10
3.9590414 -5 6.7237496
-0.61336732 5 1.635365
-0.57223105 7.2209105 0
4.0477886 -6.9527512 10
-5.1615181 8 4.4797707
-8 3.3933229 8.8052225
7.3503323 2.6574399 10
-0.0022484884 -2.9841423 13.294398
2.5993633 -1.0014203 8
5 0.23697984 7.0823631
-5 -1.3169203 1.9551711
-6.1228027 5.3248334 0
-0.66084099 -8 9.7546911
8 -1.2917833 2.748662
-0.019073606 2.5215993 8
-4.1026106 7.5701056 10
3.7573166 -8 7.1044965
-0.60210705 -5 1.7879105
0.19745696 -5.3186879 10
-1.603914 2.5161676 13.551571
-5.5654135 -8 4.3930869
0.53063726 0.34459984 19.13139
-2.9241302 -0.62739027 11.137719
-7.315062 -0.11937094 10
-3.8882003 5 4.3137755
-6.3604765 -1.504642 10
2.9703138 8 1.7940259
0.023075197 -0.017388409 13.191914
0.39477527 8 1.6442883
2.4918435 1.618222 13.727215
-2.8853076 -0.76167524 12.578662
2.3382025 8 5.578661
5.7485704 6.1881208 0
8 -1.5535908 3.7005577
-5 -4.4615231 5.9412041
8 -1.0761063 8.8284893
-8 1.0594031 3.7002461
-0.18409157 8 9.6779785
0.13646221 8 2.2630215
-0.29619169 4.8610024 8
-2.1899428 -1.9208899 20
0.92711449 -8 1.283778
-2.2046604 5 7.1898623
-5.0745916 6.4855099 0
2.164813 8 9.6992197
2.0162108 -1.5193238 16.564636
-5.5251493 8 8.8674707
5 -4.5881882 2.2511902
-0.029637337 -5 2.4597621
-6.0465384 -5.7912726 0
-6.1178646 -6.6292348 0
-8 -5.4031844 6.7813067
-1.0579003 -5 3.3817303
7.7818484 1.1390531 0
3.5694678 8 4.7922726
-5.3377867 6.866107 10
-6.0346994 6.4333897 0
7.6171474 8 5.9106627
0.87830663 6.4082994 0
-2.0732436 -7.8781185 10
2.2851121 -8 9.3870306
-3.9558158 -8 2.1685822
6.0281296 8 1.3238925
-0.23623943 8 4.8621349
-5 -2.8348517 1.6576838
3.6322858 0.41346484 10
8 2.2517776 2.9745638
7.645339 -2.4459221 0
8 -2.9612491 7.9320374
7.8209796 -8 6.9103241
-8 3.791224 8.2148485
-6.0445194 8 8.4777441
-5.8137732 -8 3.248116
1.4388732 5.0491371 10
1.6274512 6.774045 10
8 -3.3369942 5.2930956
-5 -1.3499384 7.3953829
2.4914012 -3.8138638 10
5 4.2868938 3.6259959
-6.8924975 3.9064858 0
-0.025078058 -6.18363 0
-2.8615658 8 1.3093251
-6.2684741 -8 9.5453262
-5 -0.42797327 5.7110028
8 -0.66674948 7.4500017
-8 -6.9782248 2.8590977
4.7372346 -6.2525802 0
-7.2673283 6.8356481 10
-4.2472582 -5 2.0972939
1.132046 -2.7603312 17.237446
3.6332798 -4.0114594 8
-8 6.2237449 1.9802675
2.1202333 -5 3.8257241
2.3233476 -1.8831415 18.719028
-8 -4.5773792 7.9292417
-0.89697868 2.8532858 17.054865
-1.7096617 5 3.1755207
4.3005338 4.1953988 10
2.5861104 -0.13856757 10
6.8644848 3.6620953 0
4.4039936 3.6010089 8
5 -3.2910845 6.1904712
7.4769344 -0.25292569 0
-8 -3.393465 5.9794998
-1.3842254 -5 3.4555614
-8 -3.8877792 3.1645463
-7.6197662 -7.5813975 0
0.80332124 -0.60534596 17.980974
0.51152283 -5 2.0253816
5 4.1274581 1.3629982
-3.1150868 -1.6124899 10
-5.0606403 6.757864 10
1.8616061 -7.8998246 0
-0.34033573 5 5.3552618
-0.30629635 8 8.5022488
6.8017282 -4.9917288 0
7.153089 -4.8533807 10
-1.7468572 7.624084 10
1.7023778 2.4596567 15.27106
2.2839577 0.82373369 10
-5 0.21702862 6.8078785
0.94617569 -8 3.0200899
6.2153273 8 9.9789219
1.3909882 8 0.37619114
1.0896198 0.70760733 16.038776
7.1356201 8 0.90684891
-7.1656704 -8 3.8009121
1.5712441 -0.26859057 8
5.5163732 -8 1.5300037
-5 -1.5149534 3.2053275
-1.5178741 5.1464424 0
-2.0627587 -3.9215105 10
1.6969876 -5 1.677875
-5 -1.6283945 0.16223145
2.1574321 -4.0918503 10
0.20109789 5 3.9576619
-3.7835217 2.8665209 8
1.8014586 -5 5.6169071
6.803658 -8 3.820322
8 0.32028136 5.2550182
-3.9763031 -8 6.8739409
-8 6.2931967 7.1205993
-5.961761 -2.5254736 0
5 -2.8035457 2.1125548
2.5919347 -4.8693953 10
5 -4.9824915 4.6223712
6.9975033 8 4.5631461
-8 3.6973214 0.74768913
-8 -4.7967935 4.6971216
-6.1113224 -3.4878139 10
-5 -3.8017805 7.8924398
4.2264118 8 8.9578266
-5.6219301 6.471086 10
-5 1.0594039 4.3822975
-2.1994314 -6.8184566 10
0.86773837 0.50678992 10
4.0324197 -3.271667 10
-6.4976206 8 4.9154806
8 1.9735322 6.7814779
-8 5.0422959 1.7495252
-5.1723328 -0.46515745 0
3.2781186 8 4.6942229
4.5674205 5 5.5561886
-1.8478487 5 4.3916831
3.4327774 -8 7.1587281
5 0.17320061 7.0507655
5 -4.4337997 1.2268007
-5.940568 -5.0008378 9.999999
2.5094581 1.6296611 18.364202
4.5180702 7.8690591 10
-5 -4.9862852 2.3732147
-4.5121884 6.7119908 10
5 3.5472279 6.7486143
3.9840693 5 5.4806857
6.2644429 -3.0801473 10
5.4683261 -0.25230002 10
-5 -1.7122999 2.312839
-8 6.514164 7.4466949
-0.49952531 -8 0.48790798
-4.313798 -8 0.24647786
-6.5122461 0.14667344 10
-6.8019619 -3.3762074 10
8 3.651226 7.2775655
1.540588 8 3.4700894
6.56213 3.1187208 0
7.8793974 -8 2.6093752
8 6.7354898 4.9128838
4.4548559 2.2338026 8
4.0041761 4.9999995 0.59774846
4.214654 -5 4.8923864
-5 -1.1923766 3.0364699
-6.7919965 -2.6506729 10
8 -2.0044842 3.1355205
8 3.1732731 1.8377342
7.819736 -8 9.705966
8 -3.4165668 0.23935133
8 3.723753 9.4631577
-2.3797393 -8 1.3696369
-1.7364774 8 2.8915019
0.52167416 5 4.4482741
6.2043309 -8 1.7414178
-2.6460683 -1.3783767 14.35634
-8 -4.437211 1.4070293
5 -1.1202097 1.7388645
1.0985075 -8 2.816376
5.5838647 -8 0.68784803
-0.066321492 -5.2683921 10
-6.9537754 -8 8.4725637
-2.6709318 -3.6680758 8
5 2.423475 7.8464146
5 4.5155945 2.1447208
-7.3851666 -5.274003 10
-3.5435224 0.68346745 10
-5.3136721 8 4.5666161
-8 5.9014797 7.7570863
-0.37574843 -2.975177 11.127846
4.3834281 8 5.6534438
1.0366958 0.6732381 18.601374
8 -5.3225513 5.9449787
-0.91760612 -1.9549229 8
-1.6083362 -2.5270247 18.898891
8 -0.0081472397 0.60656154
-0.7783711 2.8947804 12.930988
1.4725057 -2.6101561 13.923508
-8 -0.38272816 4.495316
5 -1.7109218 3.5500503
-5 0.93805289 0.27074814
1.5604055 4.3538895 10
8 -2.009445 1.0799929
1.3519037 -5 6.4097557
-8 -1.0539874 9.2913609
-2.280097 8 8.1799545
8 -2.936415 0.68496484
7.3146963 6.2662449 0
7.0479913 -8 8.2540998
8 0.59100175 7.2859964
1.5378575 -2.3698673 8
1.6827942 -1.2680764 18.529533
8 -5.4764581 6.543004
5 -3.7573738 1.2329012
6.5064507 4.311408 10
-0.40553772 -5 2.0145721
-6.4501758 7.2790809 0
-2.9092727 -0.67878139 15.587664
5 -0.12483799 6.5473385
-0.1994679 4.9999995 3.9478929
8 -4.4145312 7.3121109
4.202302 -8 9.257103
3.4862797 8 3.4330292
0.52812731 -2.9363399 17.250463
-0.29451394 -8 2.6382694
-2.0812883 8 5.1011081
3.3305209 -8 6.5622921
-3.9450109 -1.8006747 8
8 2.79282 3.6122911
-3.6739354 5 4.8010888
4.4295216 4.7881727 8
3.0256662 8 9.6235371
8 -4.7199144 5.4404173
-8 6.0959477 1.8164372
6.3086662 -0.83715975 0
-3.2050571 -8 7.7451253
-5.6885843 8 5.8241906
-2.7530069 1.1579552 11.713476
8 -3.4977419 7.9959116
2.1215632 -8 0.21710657
2.26598 5 0.31600434
-4.7910132 5 5.6515589
3.8744235 -5 5.7891397
5.7022223 -8 1.4495089
-2.611378 1.4518011 12.271864
1.2651647 5 7.0379086
8 -1.3424528 0.082306467
-8 3.5935395 6.6276484
-7.3386226 -8 6.7296939
-5 2.4908304 2.5465884
-2.0606511 2.1599748 18.741812
8 -1.4267657 8.1278877
8 -1.8904345 2.9147642
-4.2420597 0.81701958 8
5.9437828 -6.3766603 0
4.7589021 -8 7.2758393
-6.848958 2.9089515 0
-6.0092344 -1.1721839 0
-4.5423393 -8 7.8288479
-8 -5.2272253 6.078723
-6.8692946 -8 2.6516724
6.8289399 8 1.9695616
-8 -6.348052 4.3573198
1.229918 -5 6.4348946
1.1904067 -2.7358084 12.305284
3.9961498 -8 6.0416331
7.3283911 2.8651352 10
-2.9142759 -0.6614759 18.991575
3.6791999 -2.7690527 8
-2.99455 0.053427957 18.9669
-3.4382553 -3.7237067 8
-1.3585452 -2.6572661 14.812572
-1.6949691 -5 2.7378561
-8 -6.6801686 5.16676
8 7.4487553 7.2584119
-3.9448886 4.0192113 8
-2.6127372 3.925251 10
-2.7643843 4.2986064 8
-8 -3.6470215 2.7422829
-3.8775377 -5 6.8348579
-0.39462578 0.58743525 20
5.0858488 -8 5.373034
-3.2582431 0.90890753 8
-4.7998295 -1.1228194 8
-5.9744129 -8 0.96372247
5 3.9809575 0.44178468
5.9514999 8 5.8762002
-1.5215803 -2.9015715 8
-6.9391413 2.528265 10
6.4063449 -7.4032183 10
-8 -7.275805 9.8097696
-3.7545738 5 2.2837753
-7.7413425 -8 1.6831281
5 -1.9735916 5.549552
5 2.4182267 2.7328086
-5 4.9621296 1.2499063
-0.55227739 2.9324465 14.084461
0.87318039 -1.7349936 8
-4.1722164 8 7.3073463
5 1.0278594 2.354017
-1.4471483 -8 3.4043221
-3.9613867 -8 8.8810301
-0.99028945 -2.8305883 12.693733
0.20892046 0.13567454 13.243848
-3.7865903 -2.0685384 8
-6.380455 -8 6.5697393
6.9171505 8 6.544632
1.3550928 -2.666609 16.570047
6.6302786 -8 6.303709
-5 1.1606426 7.6266379
-7.5533099 -1.4511561 0
-8 -0.35643876 8.2436008
-5 -1.4923328 2.8377533
8 -4.1747837 0.91903204
2.3956337 -1.8409015 10
4.4955487 -8 2.1734266
-2.2375333 0.46734267 8
-6.1460896 -8 4.4389772
-1.6972682 2.4540844 14.468417
2.5305457 -5 7.2712803
-5 1.9853683 3.1807411
8 3.8574438 6.0560775
5.8653679 -8 4.3777695
-0.16813129 -2.9801602 10.794473
-8 4.3249569 0.94919455
4.4028611 -8 2.4081037
8 -7.8997097 5.889174
-4.922224 4.2442217 10
-4.2940927 4.2412229 8
-3.4496484 -6.0727305 10
5 -2.0620723 6.0552635
-1.8134594 -3.7770019 8
0.6844213 -5 4.3367476
-8 4.8796802 7.330986
-5.5703139 8 0.52614272
0.15137881 -0.11407212 10.561021
4.41605 -8 5.5854735
-1.0099688 -8 3.5452945
-1.1499146 8 0.99572599
5 4.066371 1.4096984
-5.3032126 4.6557384 0
5.1815357 7.5949798 0
3.3333111 -8 5.3156319
-8 -5.0766444 8.4705181
5 3.0569344 1.7529581
-5 3.1911001 2.2153301
5 2.6170206 7.0504451
-0.66553557 -8 4.0575662
-5 -0.20085049 5.6290803
3.4404745 8 8.3286905
5 -2.8839464 4.0266151
4.8499055 5 0.59690303
-8 7.1378765 2.941618
1.2743587 8 8.1617193
0.13876699 -0.10456843 19.091448
-2.0080609 -2.2189171 17.540207
5 -2.3880959 6.2766261
8 5.284234 9.6161652
1.2738695 -8 7.1217442
8 7.1362391 2.5290654
-3.0778079 -1.7545835 8
-4.8189526 0.21652186 10
-5.3815708 8 9.2275
-7.8670197 3.1712606 10
-3.4557934 -5 1.9555556
-7.7387371 -1.5274906 0
-2.8495555 0.89447951 14.615349
-5 -2.7726753 0.55682182
-2.5138397 -1.6248957 19.147856
-2.3587918 5 5.8944306
-1.2432644 -8 6.9731379
3.1071014 4.5889282 8
-5 -1.3611326 7.2656374
-0.44546506 -2.9609699 13.799849
-1.2556694 -2.7064271 17.491701
5 -2.8551049 6.3219533
-2.7847252 1.0713985 18.29612
-2.0249903 -2.7288065 10
-5.7604198 3.2337427 0
-4.1502709 -8 8.5165386
-4.4865599 -5 1.9568937
-6.2395339 -7.6729517 10
-6.0290384 6.570241 9.999999
-8 3.6597958 2.1851642
5 1.3597956 2.7971301
-6.3953514 8 3.4298143
-7.1400318 0.22445416 0
-2.7311041 -1.2198411 14.122075
3.0654421 5 1.4509735
-8 -5.819459 5.6447706
-5 -4.4742098 5.0248518
0.93608665 -4.9669433 8
-1.7626065 5 6.2722039
-3.632298 -1.5364569 8
-3.1075726 8 8.6005335
-8 1.2336074 9.4935055
6.8600073 8 4.285306
0.16649525 -0.63248724 20
2.4531906 1.5931206 10.353019
3.248225 -8 9.9401369
-5.975666 8 5.0304012
8 5.7785549 6.7465677
8 4.8951168 3.2086613
7.7119093 -8 7.6890745
-0.78039175 2.5960855 20
-0.57771021 -2.9293225 18.740673
0.33969426 8 3.4654303
-5.0877428 -6.4031162 0
-2.3819435 4.4596591 10
5.5907645 6.0139756 10
8 -2.6506293 6.1092463
-8 5.0824704 0.46663201
-5 1.476145 1.9284382
-1.006887 -8 8.2863216
3.0239816 -3.6152701 10
-2.9451485 0.48000318 16.376131
7.5866938 -8 8.1329832
5 2.4643703 3.3247375
1.6511198 -1.2442081 14.278514
0.86172199 8 1.3326222
-8 -0.71061659 0.21540721
0.39103985 7.846303 0
-2.5840039 1.4952562 17.850735
8 0.55162525 1.8874238
-8 7.746417 6.843123
8 -0.8514967 1.508348
7.6250992 -8 5.379024
-2.9217567 -8 4.0404029
8 6.2381639 6.1346536
-2.9701054 3.4011285 8
-1.6864901 -7.7036915 0
4.247498 7.7999773 0
8 -6.1799641 4.9997497
-5.7220783 -3.779757 10
8 7.113513 9.6189318
8 -6.1729498 4.0420923
-0.78711987 5 6.4310389
-1.7343197 -0.785043 8
-2.3741801 -8 6.1803284
5 -1.7971022 1.9908472
6.7083387 -3.8673835 10
-8 -4.5975361 5.2477336
-4.7634315 -8 9.2771416
4.1540432 8 6.6470342
-0.78127074 -5 1.2243776
-5 -3.9782505 3.6211548
-4.2171421 5 3.7478137
1.191349 8 8.5193262
-8 -1.2368002 0.20327339
5.9087973 4.2199879 0
-8 -2.0215044 1.0075121
-5 -1.8051949 1.8257742
2.010788 -8 8.6253185
-3.2923317 3.921771 8
1.5371083 2.5659387 10.607131
2.7965946 8 1.9493473
8 4.1308746 4.7267103
-4.7264152 8 0.11327028
-8 6.1369462 0.224557
-8 -3.6864738 7.0155983
-3.6243658 8 9.3675432
8 0.71820831 2.7712407
1.8644058 0.1307987 8
-6.9203091 -0.71128368 10
1.8875246 1.2257729 16.828314
-5 1.7552762 7.2463951
1.0381352 -8 5.6425781
-5 -2.4749312 3.1072049
8 -3.6192086 6.4023242
-1.5969574 -2.5357955 13.19725
1.2051042 -8 5.1451073
-8 5.3370743 4.9685807
8 2.2672443 1.4135478
-0.25508684 -5 1.5095525
1.5335228 -8 1.359224
7.4374695 8 8.2821636
-2.2773457 -2.8868864 10
2.3185983 -1.7471893 14.088979
-8 7.7595196 6.9647164
5.8165493 3.6636086 0
-1.5104208 8 5.9802465
5 3.5395477 4.9441004
8 -5.3083878 2.0950003
-3.4197445 -5 6.8797388
2.6203313 -5.3424115 0
4.3733754 -6.300056 10
-1.5210514 8 5.9902844
2.3747232 -1.7894826 17.30801
6.831759 -7.2269979 10
3.2042904 -8 7.048841
2.2660189 -1.7075677 16.05435
-2.7723789 -1.3999152 8
-2.782527 1.0773969 16.1276
3.5092337 5 2.0317361
-2.9174137 -0.65062284 18.423452
5 -0.88247162 7.352242
0.14326954 -3.5291762 8
6.4313159 -4.3204684 10
8 -4.5699215 9.1661997
6.2028141 8 4.8198915
6.3195386 8 0.56782544
-2.5191238 -1.6150446 10.863731
0.46530187 -5.439992 0
4.218616 -8 4.1762271
-6.8096151 6.8660197 0
-0.80500823 2.8895912 11.693069
-8 -6.4119172 9.9345865
-5 0.51096487 3.5366464
3.535979 -5.2173204 0
-2.7145343 -8 5.0415916
-4.5641651 8 3.9882543
6.7465892 1.9245019 0
-0.78355813 8 1.038568
8 -7.379457 0.75379145
-1.900049 -0.4149743 20
-2.1794472 5 2.7338648
-5 -0.87220073 5.231379
5 -0.10536772 7.7481251
5 1.0123653 5.0727983
-2.1314418 5 6.1246691
-6.21874 6.7392812 10
-2.0308099 6.7686968 0
8 -2.2791433 4.2635183
-0.7492758 -8 6.5879145
-0.31636858 -7.2015777 10
-0.48591137 8 9.215065
8 -7.932323 8.1530933
-5 4.4339752 7.7012219
-1.193037 -5.2672777 10
8 4.2422781 9.585515
-6.7879167 -7.6915874 10
1.1768627 -6.9122467 0
-8 -3.0475008 2.9868059
1.6430254 8 8.9509525
-1.848356 -2.3420177 13.85547
-0.51688832 -6.0075312 0
6.0672798 1.7526326 10
6.4180322 8 6.7605343
-0.87964153 7.894486 10
1.7725942 2.4030497 10.485374
8 -4.7161875 8.6416779
8 4.072547 0.10049691
2.7666721 -4.9358134 8
5.8472362 7.8913088 10
-8 1.4433273 4.5683999
5.6919241 -8 3.2077296
-2.7079418 6.5244627 0
-2.929008 5 7.4749455
4.4378829 -6.1199427 10
-7.985467 -6.6017551 10
0.88453114 4.2013021 8
8 7.9468746 6.8654246
8 7.7979679 2.8835394
8 0.13325119 1.5916457
-2.1384125 2.0802665 14.728825
1.6682255 -5.7326937 10
8 7.1176891 7.6898804
-4.0409951 -6.5925107 10
-3.4894092 -4.7884564 8
-8 -2.1352766 5.2702065
-8 -6.9317722 4.696414
0.23845685 -4.2116652 10
4.3723583 5 4.0445437
1.4335595 -8 9.3413906
7.2685671 -2.9938154 0
8 -7.3963909 1.4432091
5 4.6238146 4.6284604
1.0171041 -2.8086286 14.537368
-0.91257477 8 2.6991701
1.6325018 -4.2181406 10
1.2185223 5 6.7344666
-8 -6.9213939 0.25300366
1.3989508 -8 9.029314
6.9850407 7.9209199 10
1.0318494 -2.8024328 14.34214
7.3872285 4.6943297 10
-6.2417536 8 0.39539039
-1.4079418 6.1969366 10
-8 -7.3780055 0.043172933
2.6638422 -5 5.003551
2.9021559 -5 6.879508
-8 -6.8012195 2.9981115
7.4567356 -8 4.8690515
1.8189046 -5.1581564 0
-0.67741311 2.9115994 15.269101
3.0464072 5.7582192 0
-8 0.6447134 9.3849154
-8 2.5320647 0.64867735
6.1880617 5.7886744 0
7.2785249 4.9854202 0
4.0362058 -8 6.5014424
-6.1991405 0.65932268 0
0.51908368 2.9481509 19.3009
-5 1.9107656 3.5783896
0.93598342 -5 6.127449
-4.8657265 8 9.6399393
-8 3.3500772 8.4855194
2.0333381 -1.5322303 18.475485
-5 -4.1616216 4.4955087
5 -3.6175241 5.4326367
-5.6746626 -8 0.2161162
0.84355068 8 9.4241152
-5 4.392313 7.1230445
-4.6939774 8 4.9293509
8 -2.3729544 6.8312488
-8 -4.1524677 1.5847152
-3.9864628 -3.4294021 8
0.5957247 -5 2.2513332
0.58773541 -5 3.6140985
-0.80025768 -2.7860317 8
-1.5245776 -8 5.3300614
2.237452 -8 4.5698562
-8 1.0029291 2.0855894
-3.5376472 5 0.34173611
-6.7519412 0.02472353 10
-5 -3.4667439 2.9325471
0.24965858 4.1894708 8
5 3.5604587 3.2914007
7.6333847 -7.8540602 0
0.34083593 -0.19868974 10
-0.60970485 -2.9216661 18.51082
0.19992065 -0.21021152 8
-0.47910213 8 7.3292332
-5 -0.8217535 5.6592059
-1.0042943 2.8109231 15.478701
-8 -7.3302603 4.5808134
5.0362916 8 5.961256
-4.825151 -5.1792769 0
1.4275893 -8 2.73265
-8 -0.22905314 8.5532112
-3.9088821 -2.3545153 10
8 2.3499603 9.7959452
0.40732223 2.9677963 17.674862
-0.8476457 -8 7.7721062
0.69090819 5.23876 0
1.3513594 -8 6.2433343
-5.4448719 6.267736 10
-2.6108098 -1.4441108 18.963806
1.7172014 8 4.4218307
-1.5190685 2.3142743 8
8 4.1478348 6.8604369
3.4423966 -6.6015792 10
3.7587643 -8 9.3271027
-7.8740025 4.891643 0
5 -4.1714597 5.1836815
-2.9722457 -0.26223719 11.596687
-5 -2.7593987 0.12252998
-8 0.28552544 3.4952114
-7.2531505 5.9438496 10
3.8482168 3.8874009 8
-3.4321165 8 7.7717557
0.16737592 4.2766476 10
1.8948319 1.2305181 10.436106
5 3.7783742 4.744555
1.7792671 2.3976703 15.378101
-5 -4.6696677 0.28700924
-5.4498858 7.9837089 10
7.53864 -3.4165537 0
-2.9037447 -0.35223401 20
2.4967761 1.6576356 13.058692
-5 -3.7126687 3.7075205
4.0463905 -7.9268599 0
1.5528989 8 5.4340372
-8 -7.1190701 2.3506405
5 -1.2048082 3.7433126
-4.9850721 -4.2863436 10
-3.3054945 2.1671178 10
-5.3119321 4.0822482 10
-1.2862425 -0.45031279 20
1.2664509 -2.7038555 10.690428
-4.7702761 8 9.6421928
2.1496997 1.3960313 16.909313
8 -0.29995298 8.2862864
2.4970915 5.4390116 0
-2.8300662 -0.95274985 13.963215
3.8980718 -8 7.4752674
8 6.1979361 6.9129891
2.1821318 1.4170929 18.588516
-5.8615112 1.6886047 0
-2.1249936 -3.1883454 10
5 -4.313899 0.16249071
-3.0156174 -5 7.1478081
5.6798067 8 5.0511699
-8 2.8144677 8.5429039
5 -3.9573278 4.5261068
-4.5568447 8 7.7586966
1.5946004 8 8.0056763
-1.1932428 -8 8.8956223
-5.6069717 4.3930945 10
1.6773114 7.8385777 0
1.2983973 0.84318912 14.676805
2.9080677 8 9.151473
4.3231034 3.7455215 10
8 0.2665813 7.8701162
6.3925095 8 3.6022205
7.6783352 -4.43507 0
1.2656584 -7.8541684 10
-1.8721478 -2.323679 15.640707
-4.3395042 1.6016303 10
-2.5710588 -1.5182203 18.867512
-0.57645154 -5 1.1751976
2.2404363 5 0.71658635
1.5276573 -1.1511724 15.081266
8 3.6045787 7.3912821
5.3072081 3.5440331 10
5.1601558 -3.4843225 0
-7.8260379 4.061029 10
-0.76268786 -8 8.9364758
4.8051906 5 1.621919
5 -2.1844678 7.0194597
-3.5470514 -7.6546893 10
5 -4.7087579 5.2381101
2.0878787 1.3558843 16.910982
5 0.15620136 6.7000699
8 -6.502635 9.6902027
-2.9847128 -0.085794196 15.858241
2.2327197 1.9832339 11.451719
0.5983969 -5 0.37672853
-2.8001692 5.6968889 10
4.3411455 8 1.8672484
8 7.0370674 8.0311193
4.1660051 -6.2288799 0
-1.4054071 7.2182884 0
-0.84234393 4.4379544 8
6.0836892 8 1.1019242
0.93252206 -8 2.692971
-2.8486814 -0.88836122 18.586979
-7.5835447 8 2.7927656
5 0.54020143 3.8359659
-1.0550942 8 2.2612882
2.1416457 1.390801 16.139544
0.69268298 7.1265717 0
1.6852527 -5 7.3703423
-6.6103849 6.4843478 10
-0.18335986 8 3.4180784
4.0695043 6.6062255 0
4.2798886 -8 2.9142787
3.4766507 -6.5243926 0
-2.9020476 -0.70377195 15.608268
2.9583237 -5 0.61546516
8 3.1685238 2.5842245
-7.4728465 -8 0.21374129
7.6647196 5.2929087 0
2.6135364 1.0387306 10
-6.2350416 1.1623729 10
-8 -4.7029967 1.28386
4.8575149 -2.1174905 10
-5 1.4173608 3.2204654
-5.5178003 -8 3.5833468
-5 -0.99121702 0.34804869
1.5777822 -4.3840694 8
-2.6240501 8 2.4831252
5.1391397 8 7.3404961
-7.4601712 1.0237434 0
8 -7.2821593 2.7509878
-6.8501682 -8 7.8941016
-0.94204879 3.8140621 10
-2.9907265 -0.00068077445 17.701271
-5 -1.2868971 0.65560532
3.9946828 8 2.1608562
-5 0.8609072 1.7650628
1.971283 -2.2601349 16.876656
8 0.93714237 2.1659842
-3.4801381 2.1099133 10
-1.146656 5 4.5286298
1.9379253 -4.6007934 8
-2.7691464 5 0.85665298
-5 2.0374498 5.59196
-8 3.0649083 2.1889646
-5.6930614 5.3175344 0
-5 1.3006287 6.1704516
5.8069019 -4.1180043 0
-2.9439125 -5 7.4887447
-4.2631392 -6.4244199 10
2.4297588 1.6636626 20
-5.9750123 -2.7068522 10
-2.2672505 -3.8785105 10
-8 -0.44882798 6.3795114
-0.17302096 -2.9800429 19.881908
-8 1.6409638 9.3296995
-8 -7.4587808 7.8976111
-1.2060876 -2.7301207 19.586298
-3.6457267 8 0.24622202
3.6979783 -3.3923364 10
-3.0945745 5 2.5087309
4.0669985 5 4.0167646
-1.6413946 8 2.5628436
8 -5.2400827 3.7839403
2.4619515 8 4.705091
3.0726929 8 4.1244507
-8 -1.0408821 0.98042494
-8 -6.1669836 4.1377144
0.82066607 -8 7.1432872
0.3513397 5 7.0148492
8 5.278801 4.0504699
-3.790175 5 6.1470385
-8 -1.8131032 9.7730265
4.8027411 5 5.8521252
3.3113556 -8 6.6267653
-5 0.29433775 6.5253744
-0.27399325 7.7519674 10
-6.6940355 4.2117858 0
-2.4499617 1.7080431 14.428919
0.77956706 -1.8101635 20
3.8625002 -0.42228097 10
-4.3777599 -5 6.6576271
0.25856978 -2.987314 12.419399
-8 -3.01057 9.1568298
-8 -4.0598917 9.6971159
-5.3473539 8 6.1146569
-8 5.2708082 8.1715183
6.2124853 -8 5.2322621
2.7519643 8 9.0007725
-5.2128706 -8 2.0063114
-2.5087996 1.6146402 13.978097
0.811575 -0.94716477 20
-5 4.0887156 7.4673009
8 6.9639816 7.1566315
5 1.8753908 2.2954443
4.3038807 -8 3.4441409
2.3583765 1.8282909 17.723637
2.4566972 5.4612436 0
1.6782486 2.4791088 10.635152
5.1186404 8 8.0595455
2.5142906 7.2497234 0
8 -1.9110637 5.5995579
8 2.4632807 1.895177
7.2418065 7.4534688 0
-7.4804068 -5.7271118 9.999999
0.41920632 0.65145999 8
-2.1451726 8 2.1686654
-1.181437 -2.7419002 19.055281
7.6192594 3.8911049 0
2.4549818 8 7.2749109
7.8024817 -4.1462827 10
0.39209151 -0.29546216 17.246008
-8 -7.2396584 8.6529818
7.8996649 8 5.1890411
8 3.0779305 5.8308859
0.15944678 -2.9880233 13.420843
2.1839187 -8 5.240685
-1.4627051 5 5.7676716
6.8953328 -6.9920883 10
-2.5163832 8 6.0021248
8 -7.9798641 1.294329
8 1.8479891 1.1953503
-7.3799887 -8 6.792304
-3.3177898 1.4565049 10
-6.0095901 1.4864203 10
-8 -7.7973523 1.4619775
2.0031385 5 0.34431744
6.0321355 7.6994004 10
2.9650145 -5 4.1801815
-8 2.7138085 7.8024893
-4.1152744 -5.8362794 0
-7.5684872 -7.5934243 0
2.5012705 1.6520938 15.585132
8 -6.1431694 7.1881561
-5 -0.80198824 2.9316874
-7.3383656 -0.2998333 0
8 1.7205544 4.8691683
-5.0047274 8 8.574955
4.6422591 -5 2.5650783
-1.6531987 -6.7604513 10
-8 5.8242812 9.9918594
-0.37734443 2.9615893 15.801043
0.043400988 2.9844809 18.085339
-3.9266849 -8 8.5261097
-6.0886555 4.9209051 0
-1.1278853 -8 3.9662447
-5 1.4546645 2.6154389
8 1.1141427 6.5031328
-4.7145033 8 2.6983936
-3.1609077 -6.695662 0
-1.3899313 -8 3.6954472
2.7700877 2.1661708 8
8 -6.2618122 5.7023315
-7.2482538 -8 6.5915995
5 -0.29278588 7.4672771
1.2238045 1.3716784 8
8 5.8936462 7.1317959
-3.72931 6.8360844 0
3.876092 -8 6.0737014
4.9546552 -5.5506334 10
-0.78139544 -5 3.63696
-7.4213529 1.419791 0
7.8889132 -7.1229258 0
-2.9738758 0.2766701 18.941776
0.095704995 0.062151548 17.537086
-8 -4.6018658 9.369544
-6.0551138 -5.9300637 0
-5.6839261 6.1570549 10
-0.6078456 -0.11705728 20
3.0252824 -6.2116289 10
5.5524988 8 7.5041113
-7.8640575 -2.6489124 0
-8 -7.3690324 0.45706522
-8 7.1684594 7.9219909
-1.4911079 8 9.1921005
2.1152115 -2.1060152 15.169916
3.4938915 5 6.2337942
4.7025952 5.0000005 2.6061964
6.5739717 -6.6705565 10
3.5548074 -1.4072866 10
8 4.8890343 3.4922714
-7.6822314 -8 2.7149911
2.0753539 -8 0.28326628
-3.4197607 2.1715646 8
-2.7882814 5 0.04113733
-5 -2.7480588 3.6852984
6.3208013 -1.2639405 0
1.7634549 2.4104173 18.862751
-5 0.29868793 5.7243748
5 0.52781963 1.5217654
-7.3723836 3.907397 10
0.7663728 2.8832371 17.598801
8 -1.9692088 7.7435198
8 1.110013 4.6682534
-3.7203841 -8 4.7298961
-3.6346819 -8 9.9350634
8 2.3170776 9.4333372
5 -1.0246209 0.010480363
-5.1908641 6.6753035 10
-5 3.8698349 6.7903628
-3.0915871 5.0384216 0
3.3380735 5 5.4431853
2.8950226 8 4.2963862
4.288949 -3.9186778 8
4.7802353 -5 6.3616409
4.0478234 -5.8987546 10
-1.2905329 -0.26021063 8
5 1.1330663 1.6747669
5 1.4117785 2.6986728
-0.52292532 -8 8.3748264
-0.64968324 -2.7246387 8
-2.8659801 5 2.1173
2.6346829 -8 3.107868
1.8164871 2.3676643 13.751647
8 -1.1506157 1.8141508
0.46697801 -2.9479032 15.910183
-5 1.0275912 5.3131866
7.072093 8 5.1496344
-8 -7.6025796 3.2236278
-0.694368 -2.9014051 16.107452
-7.754334 -8 4.7509422
0.63838685 -2.9154894 19.862465
5 2.3512712 3.8894567
-4.8302765 8 0.51707864
-5 1.6763269 2.8131638
-5.1707621 -8 3.154655
-4.2068882 -5 6.5474486
-7.9187479 1.3009305 10
6.8364773 8 4.8777204
6.1601171 -6.1781111 0
-5.6919317 5.3439279 10
-3.9798775 -2.6376343 10
-3.9365571 1.4146798 10
-0.67030859 2.9127827 18.130438
8 6.2512903 2.9570398
8 7.7256012 4.2410665
-8 -2.1655219 2.4606857
4.1928749 -5 6.6006722
5 3.2448187 5.0840464
4.2422504 -2.4266384 8
3.3919566 8 9.7024632
0.28565168 -3.5525391 8
-5 2.1662049 4.5810733
-1.1430643 -2.7602375 15.495481
1.5610745 -1.1763541 17.92556
-0.64665616 3.8602476 8
-0.83726406 8 9.9137173
1.7880707 2.3905728 16.665577
1.4498503 -8 5.6803613
5 -2.0537713 7.7624168
8 -4.7798519 6.3589087
-4.0224266 -6.0706859 0
-1.915695 -2.6758401 10
8 -2.9792817 4.2185612
-8 -1.3863535 0.57806498
0.16101217 6.8129339 10
-1.9837532 6.1900177 0
5.3706608 0.18146706 0
-3.545702 6.3230805 0
-3.1682422 5 4.9595394
7.2465997 -8 9.7651396
8 2.3632584 2.200249
-0.51407814 -8 7.8205709
5.9955473 4.2356892 10
2.1798725 -2.0367756 16.929489
-5 2.1763752 2.1399059
-7.2590599 -8 1.7153269
4.9999995 -1.1014968 5.6943579
0.86492246 -2.8725739 13.209451
-5.3208389 4.3475261 0
7.9148893 -8 3.0123396
-0.82565606 -8 7.9626079
5.8280005 7.8691335 0
4.0643177 5 2.1774111
-8 -0.69904518 8.9994602
-2.4371467 1.7283865 19.669064
0.3218666 2.971714 11.438419
-4.2563066 8 6.780344
8 -0.027975082 2.8826036
-5.9961128 -1.8765721 10
-2.2480741 5.3896379 10
3.8007777 -0.25902915 10
-5 1.6926776 2.7845049
4.0654907 -5 3.3176327
-8 2.2259598 6.5918322
8 -4.7460532 8.3041954
8 -3.9594383 3.4514418
0.74982786 2.8875802 15.782694
-6.5508671 6.9058924 10
5 4.6216669 1.4150863
2.583169 8 4.2415152
-1.3170645 5 6.446167
-2.0742583 -8 0.058147039
-3.149621 -8 4.5478272
7.3440509 0.90526414 10
-0.12132806 3.8599257 10
-1.6414018 -5 6.5675554
2.5540147 -8 0.11234652
1.2118043 -3.5265379 8
-8 -1.9513237 4.7607279
5 -4.0629253 5.21486
2.4782748 -7.5383773 0
-8 -2.1406465 1.3795516
3.6577854 0.31947649 8
7.519145 4.821816 10
-8 -3.4529443 5.8858414
-8 7.4908562 3.8644471
-1.3038791 -2.6833892 19.747601
-2.1338344 2.0849593 17.816994
-4.1737261 -6.1528616 0
-4.1468 4.3109088 10
-5.09305 8 7.4094734
1.4554973 -8 8.1967764
7.6269073 8 1.8455422
-2.7769923 -1.1342895 19.085793
5.9449229 8 7.0691681
5 3.8565974 2.3647952
-5 3.1005521 0.75898266
-2.205409 -5 3.0925555
-4.9997449 5.2018328 10
-3.52426 5 3.9085975
3.3644733 -8 4.9844027
-3.8240719 -5 1.2193146
4.1805239 -8 1.0017055
-2.1838851 -8 2.7818313
1.4972517 -7.4993429 10
0.84379613 -2.876646 17.43926
5.9526753 -5.4492226 10
2.3992364 -8 8.2020988
3.7053988 0.085478783 10
1.0422547 -5 0.60550737
7.2896528 7.852519 0
5 2.4582024 1.2392325
-4.4548378 5 7.6336918
0.10343115 -0.077940963 18.473881
7.9698739 -0.073369026 10
-8 -7.1615605 9.5698795
-4.5683098 1.1086361 8
1.0213376 0.66326439 16.596684
5 0.96702003 6.5364976
-8 0.9890151 2.4729035
6.9151206 3.4494076 0
8 6.6462936 1.4936739
6.9821362 8 1.3672984
-1.0356536 7.6650057 10
-8 -3.1744409 8.1517534
-8 -4.0296335 8.682435
1.6168029 -8 4.4504457
-8 6.3276625 4.9481621
8 -4.3524327 7.6573715
0.1792202 -8 0.18741006
5.4965186 -7.8287892 0
1.1349822 -5 3.9903145
2.7506962 -1.2515444 8
-8 6.0843644 8.2532368
-0.73568112 -8 9.8234901
8 -5.4160271 0.47104058
1.2328858 -5 4.9983497
2.7711983 7.2776499 10
0.024136186 -8 3.6565084
8 4.2513103 8.4809847
8 -3.0721312 7.62075
-6.2426066 7.2039127 0
3.1296797 -0.035473347 10
3.9210711 -5 5.2088227
1.1395411 -2.7571816 18.552685
-6.1266117 -5.1536698 10
0.057332397 6.95717 0
-0.20907971 6.2890964 0
5 -4.5905728 0.61674136
-6.0870681 3.7114301 0
3.6383295 -1.1435603 10
5 1.6288487 6.6232872
-0.58563894 -2.9274251 10.217908
-8 2.9289179 8.6297264
7.2862444 8 3.6292715
-0.44682145 -2.9606454 12.222958
-3.4339123 3.4765096 8
-4.2906828 8 5.3616533
1.6925992 -1.0521216 8
7.5776224 8 0.60532689
8 -1.7672212 0.83057809
-8 6.3905802 8.9191866
8 2.8976288 8.8499918
2.4845924 3.5154042 10
-8 -7.9735646 2.6957932
-0.30026507 -8 3.3034415
-8 4.1559935 5.7806268
5.738061 -2.9688137 0
3.3100045 5 0.46423122
6.7234983 0.25783515 10
-3.9263225 8 0.42825341
8 7.4285069 7.3653393
2.3938046 -6.6765232 0
3.5321717 1.4260272 10
2.7981315 5 7.5060968
-4.8516994 5 1.077219
8 -5.1733227 0.98845428
-4.2931352 2.4963734 10
8 2.6103592 4.4534874
2.919668 2.8780293 10
2.0228391 5 0.05562669
2.3636785 -1.8399549 11.958742
-7.0557632 -5.3036499 0
5 0.25248706 5.1040792
-1.9823751 1.9134146 20
6.8163519 -8 4.052959
3.689328 2.0768876 8
8 7.8939896 7.1817322
1.6139753 -8 7.1765609
5 4.2453728 7.1000443
3.2257214 5 6.6322794
1.0426795 5 1.671842
-1.7723899 -5 0.80946732
-7.3537917 -3.8293004 10
-0.50242651 6.9093904 0
1.9880533 -1.4981058 12.443226
-5 -1.1927415 1.3872828
-2.3070211 2.8197708 8
-0.40200365 2.9574814 13.824444
5 3.731672 4.0600653
-5 -3.2266474 4.7564535
-5 -3.2335987 6.2403364
-6.9306316 -2.0250335 0
-4.7788777 -8 2.7153888
-2.1200762 8 2.4902825
0.63643813 -5 6.3619823
8 7.767992 2.1091523
4.6828575 0.3110458 8
-7.675148 -3.2607188 0
-3.0732012 8 3.9153011
-2.3274436 -8 4.9598317
8 -7.2297859 9.0382538
-2.7339239 8 4.4516668
2.9547853 0.99235463 8
-3.9941046 -1.316219 10
7.984827 -8 8.9076109
1.3549161 -1.0210025 10.156801
5 4.502079 4.4185982
-2.1366651 5.6924281 10
-2.2614262 -8 3.6439152
4.1050177 5.3238249 10
8 6.8419418 2.6210141
1.3656797 5 1.0611227
-8 -5.1201792 4.9257336
5.4519949 1.1877795 10
6.3140087 -8 6.6608486
4.5492911 -8 2.5687933
4.8825502 -8 0.61037523
-8 3.1977434 2.9914618
8 3.4939241 4.5397491
8 6.2550039 8.1065474
-0.97220421 -5 6.9028859
7.867506 -8 4.9485307
5 0.79190123 4.5436907
2.8633766 -3.6366127 10
8 5.99891 3.0797718
0.074440382 2.9830577 10.548224
-2.2189984 -8 3.580512
4.4113798 5 3.6546855e-05
-3.8680897 8 6.4097414
-8 4.2930212 1.0396845
-1.7712458 -1.4503607 8
-2.9966888 0.11519989 17.912098
-2.0412028 -2.1933713 17.724676
-2.0382786 -4.6471376 8
-5 2.9619617 5.7474961
3.1399903 -8 2.590368
1.240549 2.7156875 13.247764
6.4827423 1.1110885 10
3.6448534 1.7353573 10
-3.877984 -5 2.3148503
6.1355934 -8 7.3778863
3.8035214 -5 2.6820168
-2.2399573 -1.9712751 19.740187
-1.6242795 4.4011946 8
5 2.9537058 7.5995932
6.674334 7.6962204 0
-8 2.1989341 4.5632253
8 6.497159 9.1456022
2.1701956 -8 1.7926937
-4.9492331 -8 3.5207038
-0.19161797 8 5.8441682
8 -3.8675966 1.6275629
-2.8712888 0.83517051 11.106987
-5 3.3405156 1.0388408
-3.9188612 5 6.2189713
-2.5872684 1.4900742 17.310913
3.0799704 -5 5.1037154
1.1389644 8 1.6481894
2.2007318 3.1458371 10
-4.3324199 -4.285707 8
-1.8661633 8 5.0363841
8 -4.0131974 2.9723234
1.5924591 -4.2864695 10
-8 6.1211433 4.998477
0.48251438 -1.7876289 8
5 4.6647129 0.54953337
-2.3895774 1.803901 14.212687
-7.2918782 2.4947944 10
-5 1.7038198 3.3939698
8 2.070878 0.82980812
0.36385155 6.6247807 0
0.051810317 2.9840956 13.716324
2.6252079 4.7608447 8
3.0166712 -0.28170753 8
-0.63071311 -5 1.6735306
-1.3582256 -7.0281205 10
-1.1133473 -2.7744384 15.847822
-2.1967087 8 8.0868053
-2.8469477 -0.89435875 19.415764
5 -0.40618142 3.0633681
-0.54404473 -2.0892084 8
7.8185396 -3.93436 0
0.82481396 5 7.2820606
4.06919 4.974884 8
-0.010759592 8 2.0292873
-8 -6.5604706 9.2609434
2.9262118 -5 1.8453293
6.2492704 -4.6749911 10
-8 5.7329659 6.8701038
-2.5458779 -8 7.3863392
-2.9862571 -0.063941441 14.602633
-8 -6.0418801 1.9747512
0.60750127 -5 0.1615901
3.068774 -8 9.5469074
