# .PCD v0.7 - Point Cloud Data file format
VERSION 0.7
FIELDS x y z
SIZE 4 4 4
TYPE F F F
COUNT 1 1 1
WIDTH 2026
HEIGHT 1
VIEWPOINT 0 0 0 1 0 0 0
POINTS 2026
DATA ascii
-7 4.8550482 12.346408
-4.5904636 -8 9.3091068
5.099205 -4.7576098 0
-4.3871775 -3.8450532 18
7 -5.4051914 15.728066
8 3.1509161 5.5713
4.5590515 4.9131112 20
7 -0.65638828 18.816833
-7 -0.33420455 14.194618
-0.2070694 6.5676537 0
5.1658034 -7 17.002729
2.0536194 6.4612675 18
-5.4234176 -7 12.90292
-7 2.4612045 14.495609
-3.9300241 3.5 18.113068
6.2303715 -7 10.787971
8 -6.8382883 0.099920034
-8 5.8608313 7.5347314
7 -3.0274849 15.437523
3.9435408 3.5 19.27598
1.0602878 -6.9941559 0
-8 1.6912352 4.8783402
-8 -0.85824847 5.7291937
-5.907999 3.5 19.352249
1.3818796 -8 8.9227676
8 -4.4803114 5.959981
0.95021755 -5.3799405 0
-8 -5.3038588 1.4088497
1.0952271 5.5 19.540398
8 3.8473082 6.3636365
3.5418425 -2.0510745 0
-7 4.5446334 16.860344
-6.5297146 -6.4285803 0
6.0421648 -3.5 19.5186
-4.3313675 -7 12.397425
4.5833073 0.5 19.655708
-5.2754211 8 8.1956062
7 3.5249133 16.018932
-1.6002703 1.5949463 18
-8 -1.3061876 4.8113918
0.68943024 3.6434212 0
-5.4896145 1.238762 20
4.6729898 -7 10.6753
-7 1.6489965 16.545349
-1.8754919 -8 4.7857838
6.4187341 3.5 18.725304
3.2915123 3.5 19.243443
-6.9956088 -1.9029355 18
-2.9584806 -7.8701124 10
6.7685442 -5.5 18.892361
7 -6.7828226 17.624844
6.7518158 -0.58026624 0
-3.6450977 8 5.5916467
-4.343996 -8 2.4404757
5.0211716 -8 4.4979577
-7 -1.1861289 12.765794
8 1.0124178 4.5670209
-6.3682609 4.5 18.475414
8 3.5795479 4.1054206
7 6.3382463 15.918796
6.7907953 -0.87750053 0
5.3453665 -4.5 18.509514
0.60428381 -8 5.7564125
-3.1697261 1.6694834 18
5.7530499 -5.4581213 20
-6.5327816 -7.6459379 0
-7 -4.3886223 17.715477
3.218019 -8 9.5285282
-8 6.1767979 4.2343707
-4.8957381 -6.9165473 17.999998
-7.5829353 8 0.94810659
3.555614 -3.5 19.744267
-4.9972668 -8 3.5200229
8 -5.6474519 2.0815148
2.8055282 -7 11.103506
5.6531439 -1.7409954 0
-1.3432398 5.5 18.740105
-8 -0.898664 8.3919697
8 4.1571326 8.3056259
-0.71991873 8 2.3184948
-2.9524455 -8 9.2253075
8 5.22577 3.4606264
-5.5455165 -7 10.985783
-1.380769 -2.7566092 0
-8 5.032753 0.26945105
2.4651232 -8 0.20634413
-3.6854153 2.2725787 0
7 3.6060777 13.622005
-8 4.0313406 8.6767921
-0.57716995 5.5 19.992321
4.5172725 7 14.808792
-7.8764205 -8 8.6159744
-0.19467926 6.194828 18
3.3644168 -8 2.5869744
-2.59795 0.10689537 18
-5.5515223 -0.5 19.269085
4.7292628 -5.2479529 20
1.3661551 -7.0847759 0
7.0998325 -2.7751961 0
-4.2036657 5.5 19.389814
8 -6.1248903 5.3239226
6.3286514 -0.33761817 18
-2.6981449 -1.6599394 18
7 -1.0809151 19.789625
7.9804564 -8 7.3740506
5.240346 -0.5 19.291992
2.7190661 -7 13.859628
8 1.4260464 0.63459265
-7 -4.0993414 15.4523
8 2.715786 2.6553085
-7.088335 8 7.5336618
-4.4263396 7.6485562 10
8 1.0411835 9.5082016
7 -5.3795824 17.107531
-8 -5.0804729 6.8547988
-8 -1.495896 5.9473839
5.8602304 4.6091399 20
7 -2.1849279 13.208629
3.3947308 -4.4461741 18
-7 5.7108631 14.438371
-3.0363832 -0.55038404 20
7.0000005 0.38588583 15.883351
2.8404722 6.2053366 0
2.8941236 5.5 18.77199
1.2411118 7 16.656452
2.4860818 4.5 19.44751
7 -6.9901628 12.297497
-3.6301551 -7 11.1204
-6.1344204 -2.5 18.493608
-3.3385913 -7 12.783274
1.0104964 -2.0090508 18
-6.1727591 -4.5 18.432014
-7 4.6347733 12.156763
-4.8303332 -7 17.746998
1.8996871 -3.5 19.60569
-7 -5.2459621 16.286816
7 6.2852783 14.856863
7 4.4849348 13.542267
-4.569787 5.5 18.45396
2.8635352 8 5.0310698
5.6813807 -5.3994045 20
-4.3880396 4.5 19.78125
-8 -1.4680572 5.5013542
-6.2286243 0.80252647 20
-4.9060593 -4.5 18.551746
-6.5826869 -0.18953466 0
-3.2256579 -2.4316702 18
-2.1030233 5.5 19.38768
8 2.8828526 5.0729918
-4.7711639 7 16.677515
-3.3294277 -8 0.14480363
-8 0.7197957 7.048708
3.8340178 -4.7228718 0
6.6520147 -2.2931511 18
8 -0.74366403 7.9804683
-2.2696991 -0.13273573 18
2.1189919 7 17.402733
-2.9946003 0.5 18.82336
3.422863 4.5 19.143068
3.9282193 7 16.057013
-3.0550466 7 17.981163
-4.9611559 7 13.37356
-7.855094 5.190937 10
-7 -4.021554 15.510774
-7 0.95951813 15.658478
-8 0.89191055 8.0325356
-8 6.8063436 5.039474
-0.41594481 4.5 18.980314
0.69132423 8 8.149065
-4.4245062 -6.4494581 0
-7 0.10944533 14.268349
-7 -3.0979762 14.243134
-4.3945503 -5.3399658 0
-8 -5.643055 5.5932198
3.6193082 -5.65767 0
6.1122704 8 9.7714128
-2.0996916 4.5 18.81493
3.7383313 -2.5 18.753029
3.2677941 -0.8834458 20
-2.6288486 7.6480765 10
-7.9526882 8 1.4519178
7 -0.54841542 12.264962
-3.1662915 7 11.373168
1.6722497 -7.8575768 10
-5.2640095 -3.8211827 18
3.7836933 -1.3576938 20
5.6735439 7 17.371252
-6.1209669 -2.5 19.290272
6.4458108 8 1.2409073
4.0682669 -4.5 19.001728
1.2087686 -8 3.1244605
-7.3673205 0.98211908 10
2.0872319 0.93414545 20
-8 2.262368 1.953657
6.6781712 7 16.651939
6.4829407 4.6698484 0
8 -5.4347477 3.7002432
1.7488844 -2.5224435 0
-2.8089645 7 16.998833
-2.8109558 -4.5 18.1392
8 6.4271269 5.7919149
5.563201 3.0756845 20
-0.71173286 2.9396725 0
-1.4255908 7 14.58631
-6.9596543 3.2470083 0
-8 7.487257 3.5288682
1.2628365 -8 3.5677803
-7 -1.9062823 16.215885
1.7374376 -7 14.384353
8 -7.090836 7.3576312
-6.902617 -7 15.53125
-8 -5.1319509 6.6958089
1.7537549 5.5 19.412632
7 1.5995994 14.734135
1.5286853 -7 13.460339
6.5858335 -7 14.578732
-7 3.1227329 16.404392
-2.9235587 1.4518311 0
-1.7177355 -5.1603556 0
0.73398113 -3.7992897 18
3.1973143 0.5 19.726845
6.5229712 0.5 19.168278
-8 -5.7993979 0.99705368
7 -2.5401673 11.990843
-7.2138042 1.2699642 10
-5.0490336 -8 8.5763016
8 -4.7143731 7.2310886
0.28693151 2.7526062 0
-2.0659823 -8 5.5967669
-5.682198 0.5 18.407185
3.1429651 -6.9999995 17.783659
-3.0687044 -4.4175415 18
-7.0459986 -8 0.69488299
8 1.0192525 7.6543636
3.1619718 7 17.647142
-8 3.5841842 4.0874014
4.750442 3.5 19.884792
8 7.7102365 0.98592228
-0.73642063 2.8240185 20
4.6453738 -8 2.510365
-5.4262686 -2.5 18.713169
7.7209673 1.0041475 0
3.1286249 -8 9.2548065
7.9377165 -0.65530396 10
-8 -6.6335893 0.86528033
-3.8085437 1.135246 0
7 -1.1038327 15.132992
-3.1899662 -7.2193832 10
-3.2940574 -7 13.360176
4.8611836 5.5 19.752541
8 -0.3684448 6.9947686
-4.9148893 -2.5000002 18.226839
-3.5623426 3.5974717 0
0.37349463 -8 7.3363347
4.0003963 8 1.5011674
-8 -1.416083 8.7623796
-1.9667997 7 13.064333
4.7651482 -6.1491709 0
1.8073561 -8 2.8711224
2.2914591 2.5 18.453903
-6.1447077 1.6113603 18
-3.5166733 -8 8.5110216
-7 3.7902048 11.937332
-7 6.1483994 13.054087
6.9286819 6.0921106 18
3.6059446 -1.0539052 0
-7 -6.1866779 13.897091
-8 0.49587727 0.25593078
1.9387951 8 2.5166833
-2.7878065 -5.4627309 20
-8 6.6446824 4.0846429
-7.2182531 -2.3218637 0
4.0135016 6.497323 18
-7 1.0146762 13.04972
5.9245443 6.0742912 18
-2.4184639 6.5464668 18
-7 4.615119 12.498503
2.2389355 7 17.799511
2.622117 -0.11479509 18
0.90323353 8 9.9119425
-8 -5.8632746 5.9787865
-5.4205561 -2.5430756 0
0.47123885 -7 13.940357
-5.1374435 3.5 18.953756
8 2.8427196 9.4971275
4.6401763 -8 3.3755722
7 -0.589468 18.687346
2.0390615 -7.7265873 10
8 0.44420624 4.6904397
-3.2436118 -0.83085418 20
-5.0342093 -0.5 18.76148
5.2901487 -4.1542678 0
1.3418074 2.5 18.178967
-0.70447063 -0.5 18.992554
8 -1.978721 5.0463095
-6.694314 -8 3.0396101
1.2477527 -2.4350717 18
7.533864 6.8079672 0
7 -1.6734145 11.103608
-7 3.5693421 10.621835
7 6.5671544 15.958529
-0.61734945 -3.854171 0
4.6239767 3.5 19.456743
-7.4067664 6.694046 0
-4.823936 -5.7780714 0
8 -1.5644891 9.6601791
-8 4.857645 7.6848407
3.8958511 -3.5309341 18
-4.528513 -5.4033613 20
-8 -4.3385429 4.4245677
5.5134916 6.7078462 0
-5.8693209 -4.0740032 18
-8 -4.0830741 1.3848358
-6.2999535 1.5 19.067265
1.074523 4.5 19.905916
3.5854044 -4.5 19.17556
-3.0407238 -3.8701048 18
-7 -1.6969715 11.717632
3.5182953 7 10.48406
-3.0978467 -7 11.745386
1.0957167 5.0733337 0
-3.4808607 6.7079716 0
1.4259148 7 17.572384
-2.3211136 -1.5 19.855713
8 -4.6903033 9.0804453
6.2563534 -3.5 18.071486
8 4.6590204 4.3682785
1.5448885 0.5795036 20
-7 6.8071938 17.231892
-0.57447481 -4.1043172 18
-8 -3.3906987 6.5605826
8 3.5263624 3.61852
-7 5.6544414 13.853038
8 -2.942354 2.5855062
-8 6.9196963 6.6021452
5.365653 -2.978281 20
-5.2333946 -1.0017393 20
8 -0.27505767 6.5268965
5.2939296 8 5.7590985
6.3838034 -3.2252853 0
-8 -7.0822954 2.9501846
7 1.9614332 12.353629
-8 7.1291056 9.4168348
-1.1080489 -2.5 19.213224
-3.1714246 7 13.341307
-6.3866072 -7 14.580867
8 0.31159878 3.5972247
-4.8119507 -4.5 18.643871
8 7.5932579 5.4715152
-4.0114183 -5.5 18.202938
-3.9608541 -7 12.231651
-6.1752391 0.44304803 18
-7.1659403 7.025857 10
8 6.9722977 3.9371505
8 3.1708107 9.6215849
-3.8122625 2.2523696 0
3.056118 3.5 19.402975
7 -3.4045503 14.982992
1.5889027 -4.6076927 0
4.0517859 -7 15.512064
-4.7413969 5.7539482 0
7 -0.83141196 10.972107
0.27358413 7 11.786825
-0.35879374 -2.2970562 18
-8 7.4506569 2.5727258
-2.7028975 -7.9990926 0
8 -6.0320573 8.7164707
-4.504106 -4.7898121 0
-0.80008417 -8 8.5834656
7 5.1131535 17.773865
-1.7440319 1.5 19.219795
-7.0326262 5.15308 10
-6.754261 0.5 19.67811
-3.8887935 -8 6.6632824
-0.61441422 7 16.130028
-2.5711074 -7 16.759972
2.240932 -7 13.117821
-0.92696071 3.469039 0
-0.019842267 -1.5 18.465328
-5.8581829 -8 3.7595129
4.2959251 8 7.7637253
-3.5104494 8 3.1715717
-4.7787056 -2.0603507 0
-2.9376955 5.3238406 20
7 4.545599 16.897934
5.648387 -8 1.3700293
7.2699347 -0.3835969 0
5.2824674 5.5 19.72328
-0.3759017 -7 12.443953
0.65060622 -1.0190414 20
-7 -4.042994 13.886147
1.8844571 -7 10.594439
7 0.097718939 12.245709
-0.0903368 -8 7.1503429
-6.03338 -7 12.213772
-6.7550364 -8 6.5364118
-3.3258598 -1.1664896 20
0.25425696 -7 11.695151
8 -3.387852 9.6673155
4.8027935 -4.5 19.991938
2.6788125 -8 7.2419739
-2.7768316 2.5 18.350489
3.6244326 -4.7828913 0
-5.4488773 -7 11.38397
4.3006239 -1.5 19.562738
4.7379732 7 10.20215
-2.9806142 -7 15.36911
2.6972611 4.7369585 0
8 7.1701574 3.1928363
-5.4864006 8 4.3416395
-3.6617694 7.0346484 0
-8 7.0168624 9.9406147
-4.7665615 -5.5 18.208193
4.1381111 -0.5 19.531515
-7 4.2211213 15.401912
5.6690407 8 6.4528103
8 5.1615181 2.7057192
5.3273115 -2.9691575 0
3.4116058 -8 1.1846625
7 -4.5851994 14.878651
-3.6391087 5.5 18.720158
-0.33177206 -3.5 19.770592
1.5778614 5.8665943 18
8 -7.2020307 3.7426753
-8 0.66084099 5.1677165
-4.9784374 -7 12.19893
0.026702762 3.2521601 20
-4.774353 8 2.874902
6.6586428 3.287652 0
-3.8711567 -4.5 19.120422
4.3484111 8 2.365778
6.2534285 7 13.267869
-8 5.5654135 2.87147
7 4.8536224 12.38212
-5.4071941 -5.5819097 18
5.809 8 4.2317448
-5.4434805 0.5 19.078445
2.7554417 8 2.3992252
0.099872351 -8 8.2059746
7 4.5434632 12.476482
-2.2360859 -8 8.3557119
7 4.0701075 12.981772
-3.3898733 -5.6977921 18
-6.5876551 -8 4.4213386
-6.7367148 7.4399953 10
-7 -6.4449167 13.223205
7 -3.2964981 18.514698
0.94159317 -7 14.399155
-0.92697775 -4.2533665 0
8 0.18409157 4.7930355
8 4.3791656 4.914711
0.22007155 3.5 18.0278
6.6680737 2.5 19.131451
-7.4295669 -5.6322775 0
-3.086525 0.5 19.797464
-7 5.429286 14.7441
8 -2.164813 3.3462112
7 -3.3790669 11.267815
8 5.5251493 7.3206887
-2.4838805 -1.4999999 19.437202
-2.6954165 -4.5 19.005928
8 2.0100379 9.7447348
6.7760229 -7.5942154 10
0.22161603 -2.4938297 0
1.48106 -3.5 18.057013
-7 1.8002858 14.460451
-4.0981679 -8 5.2077274
-7.10958 8 2.8218822
-7 3.9659133 14.376972
-1.8399122 -8 4.0893378
-7 4.0796375 17.887838
-1.8845582 8 3.5788722
-8 -3.2658632 9.3870306
6.4973545 -3.4613388 0
3.9099016 -8 8.6761074
8 0.23623943 0.0097846594
7.0000005 -2.7072105 18.433031
5.4837222 -8 7.9644847
-2.1940839 -7 12.379652
-7 2.9076886 12.599709
-4.1048522 -7 12.519375
-7.3089676 7.1299472 0
4.5007877 -3.3173215 0
8 6.0445194 7.255569
-8 5.8137732 1.881724
-1.4327025 -8 1.0871068
4.0811248 -8 2.7308252
-0.41033423 -7 12.331503
1.8899138 -1.7894289 18
-8 -0.69744986 8.0004711
-6.0016508 -3.5 18.9065
8 -5.0139885 6.3083248
8 -7.8960152 3.9454327
-4.9564857 -8 8.6906748
-8 5.5409961 9.5453262
0.59916258 2.328922 18
0.58340573 -7 15.706624
-2.997263 6.1059465 0
8 -2.8349166 4.1752682
5.6563063 8 8.5302906
-5.9461613 -4.7621617 20
-0.56854773 7 12.210045
-5.0865917 4.5988541 20
-5.4457769 2.6734025 0
0.30498266 -5.5 18.575953
4.6432343 7 11.024777
4.1009388 4.0052071 0
2.8768125 7 13.653534
2.3935266 1.5 18.79388
-2.196414 8 4.8551111
0.40787339 8 5.4817009
-6.5045156 -7.3202391 10
-6.1655912 5.5 18.160597
6.2258072 -1.5 18.452381
-7 1.1727724 13.612005
1.3712997 2.9692819 0
-1.9379163 -4.9319453 20
-2.5696354 3.4018068 0
8 -6.0334759 9.9616308
7 2.8812814 15.317688
-3.4555824 -4.5 18.897696
4.6147532 -3.412746 20
-8 -7.3666177 1.0635214
-7.0015717 8 3.105643
-7.622611 -1.8049023 10
-2.3717079 1.5 18.406883
8 0.30629635 3.6936843
-7 0.55962873 10.905
-3.8702445 -8 1.5443347
-2.3342543 8 4.2921224
0.3794837 7 12.549955
3.5350227 8 9.1713476
-7 1.3509848 19.043406
-2.7269921 7.5591359 0
8 -6.2153273 1.0943426
0.78908241 -8 9.6238089
7 1.3606937 13.464594
5.6846619 -8 9.0931511
-8 7.1656704 3.2794561
0.37602711 5.5 19.314249
-7.6917725 -5.5497675 0
7 -5.2491708 19.198668
2.9476609 7.7152457 10
-8 -4.8509579 4.8533936
4.0637188 -5.5 18.660603
-6.7160945 6.4942584 18
-8 0.24225998 7.7401514
-0.074091688 0.5 19.949196
5.2969303 3.2866521 20
-2.5220423 -3.5 18.043934
-7.6179676 6.4216261 0
7 6.2062635 14.204014
-8 -1.0253916 6.8739409
-5.506547 -4.4622917 0
8 -2.6274512 6.5637121
-0.22799349 -1.5 19.471861
-8 -7.4384418 6.5997548
-1.1136611 -0.5 18.003502
-0.30353069 -8 5.4368544
-3.2351561 2.1883912 0
-0.4240303 4.1971946 0
1.9584399 8 0.90741992
6.8117695 2.3801782 18
8 -4.2264118 1.3163192
-3.3409777 8 3.0516729
0.66902089 1.8940597 18
-8 0.37027717 7.5898194
-2.7389412 8 3.4569204
-6.4649191 8 3.8590741
8 6.4976206 3.9764936
-1.7268409 -7 17.561584
-4.4120088 1.9626732 0
8 -0.45059004 5.2928243
3.2781186 -8 2.3546014
-2.7233295 -0.54325795 20
-0.68544531 1.5 18.467491
-8 -3.4327774 0.013242631
0.24248111 -2.8986659 20
4.0604181 -0.5 18.113239
-8 -7.052341 6.5318284
7.0000005 0.69038057 16.691362
7.5814357 -8 2.0424817
7 -2.7966518 18.002743
-6.5247993 8 3.4952736
-4.8100748 -2.5 19.396601
4.0135031 0.5 18.203186
-1.0654275 -8 3.1647713
2.6865911 -8 4.6164827
1.6502481 5.9336572 18
-5.699894 -4.7254791 0
-8 7.219347 5.3122034
7.79426 -7.3998957 0
3.2409272 8 3.5849972
4.1676779 8 1.6765964
-7 3.1914847 10.003561
-4.0115552 -8 6.5299106
7.4792905 -5.320106 10
7.2609377 7.1554098 0
-7 -3.2853231 17.367746
-6.2367983 5.2233801 20
5.9539404 -0.59958231 19.999998
1.561676 -4.5 18.15707
-1.6861775 6.4288568 18
4.1358004 8 2.1199632
-7 -2.2126813 10.489342
-7 -1.082557 14.116449
-8 -7.5295463 0.11266511
-7 -6.5463681 12.291717
-6.2484207 -7 15.861876
-7.8630362 -2.5167031 0
-6.3628802 -8 7.1084981
-0.78447962 1.5 18.007734
-3.5922043 -7.8258581 0
-0.799582 -6.346549 18
3.8825595 -5.8523998 0
1.474719 -1.5 19.565283
3.26337 7.2816377 0
-8 6.8994431 1.5100846
4.1624956 8 2.149189
-8 6.9537754 7.8186731
3.7393043 5.5 18.199429
-6.731226 -2.5 19.446301
6.3218327 -2.5 18.536179
6.0332522 8 1.0810959
-6.255518 8 0.91401577
8 5.3136721 2.8876612
-5.1637945 -5.696126 0
7 -2.0383186 17.243496
-4.6620822 -8 4.3465562
7 -2.3636682 13.296314
-1.3229696 -7 11.338725
2.7368922 5.3962688 20
5.4584484 -3.5358925 18
-0.8563149 -7 10.485249
-2.896616 7 15.35541
-6.3051119 7 14.861193
0.33488709 -6.6283293 0
3.8172979 -1.5 19.112488
-6.5261908 6.109292 18
-3.6551232 -8 0.30112126
-7 -4.8327475 12.995277
-1.8926649 -3.5 18.332058
6.0079041 0.92223907 0
8 2.280097 4.6050148
-7 -4.4291949 11.98382
7.1235895 5.6557574 10
4.4962382 -7.0595002 0
-0.51712644 -7 16.466703
-2.1530008 4.7630134 20
7 5.2124009 12.381104
4.7919006 -7 14.027368
-4.8424225 -1.5 18.248526
6.0451937 -8 2.7234728
7 5.2481785 19.081108
-7 -3.2989678 10.414453
-3.4567528 -6.1618509 18
-4.4578419 -2.5 18.611868
-0.27925491 0.5 18.986973
-3.2369552 -7 11.792734
-8 -4.202302 1.6306645
-2.0065668 -8 6.5669708
7 -4.8932405 15.861778
3.9512768 -0.25769973 0
8 2.0812883 1.401913
-8 -2.4996674 2.9184246
5.5230145 3.5 19.571133
-2.6134899 -7 12.889833
5.1435089 1.5 19.200272
-6.4978886 3.5 18.042364
8 -3.0256662 2.7324955
4.1299253 -7 15.287708
-5.3339539 2.7909417 0
-7 -3.4576612 12.735752
-8 -0.40274239 7.7451253
8 5.6885843 4.3795557
5.5031986 7.0000005 12.226096
-4.1942763 -7 12.251129
-1.7959032 -7.9782896 0
6.4469919 -0.77340198 20
-2.8902283 1.5 19.371094
-3.1309948 -5.5 18.225115
-2.9601319 4.9894443 0
-0.44339609 7 16.070862
-1.7712312 1.5 19.759478
-7 3.8875055 13.328773
-3.1443472 -6.1343613 0
-8 2.106133 6.7296939
-2.5434699 1.7509168 18
5.2385364 7 13.649523
1.24842 -7 14.784307
-5.7347994 -7 12.331812
5.9388828 3.5 18.988184
8 -1.090687 4.5888686
-8 -3.6413436 2.0256865
8 -4.0599933 6.1631942
8 -5.1218634 5.16295
-8 4.5423393 5.66781
1.5102122 4.573822 0
-8 -4.8880296 2.6516724
3.6776414 -8 8.0304384
-0.8997519 5.5545454 0
1.7218854 -5.3043618 20
-3.772603 7 12.63282
5.0663004 -7.3958368 0
3.6447716 -8 1.2246723
-3.8561106 -5.6512637 18
3.8766737 5.5 19.73584
5.5536585 7 11.477597
4.8135576 4.6276293 20
-1.7746544 -4.018743 18
2.3729563 -3.5 18.023457
0.23346424 5.8451471 0
-7 -4.8258381 17.724379
-4.1497397 4.5 18.196157
-1.7113056 8 7.7998466
3.8701384 3.5000002 18.587402
-3.160804 3.1911435 0
5.4285526 -3.5 19.484222
-5.2663479 2.5 19.773247
7.7194376 0.87741613 0
-1.1659899 3.5 18.818218
1.8521862 4.5 19.224564
-5.5846434 7.1265993 0
-6.3464642 -0.5 19.796192
-3.4504204 -8 4.1238003
4.0622005 5.3620009 20
4.6064916 8 5.5058155
7.3302259 8 8.3901968
6.7336779 6.3663292 0
5.256403 1.3390707 20
-8 -5.5656528 1.6831281
-6.9486876 -0.5 18.605282
3.3855171 -2.5 18.683203
-6.9469819 0.34754878 18
4.324264 7 14.79656
-1.2224531 4.8265009 20
8 4.1722164 4.9149814
5.5585327 -1.5 19.411495
-1.9626374 7.4095531 0
-8 2.1710348 8.8810301
-6.7462645 -2.2306266 18
7 2.9983494 10.664291
-4.5947275 3.5 19.413706
-8 0.89203835 6.5697393
-3.5542605 -8 3.4553683
2.198066 7 11.483952
2.8252854 -7.3696294 0
-1.6248996 1.930606 18
8 1.0044661 8.511034
4.5410414 0.31188411 0
2.8768022 6.0320787 18
-7 -4.756732 11.177382
7.3439083 8 9.6187763
-1.235409 -7.7826576 0
3.1325469 3.0467343 20
-8 6.1460896 3.2802832
5.0515709 7 14.688122
5.72474 -4.5 18.493891
-2.7795153 -1.5961295 18
-7 2.3591452 11.08386
0.70128584 -7.562223 0
7 -5.5175905 12.776632
-3.7843378 2.4554653 0
-7.5343685 -4.1630235 0
7 4.9450579 14.71134
6.058506 8 4.2779875
-4.9494419 4.5 18.151756
-0.46603191 8 0.86184323
-2.8869014 -2.5507007 20
5.2878027 5.5 18.637308
0.58930826 -4.5 18.863115
-4.2697201 -5.99366 0
-5.5703139 -8 0.9924112
7 -0.81156176 17.494541
-7.2174559 0.60220742 0
7.9176526 -2.2451816 0
-1.1499146 -8 3.2855773
5.6929197 -2.5828495 20
8 -7.3525257 1.0107092
-7 2.9340811 17.468311
0.15021706 -7.2916679 0
4.8587255 4.4420643 0
4.2797089 -2.5 18.438238
-3.1231723 -2.3191099 18
3.6638288 -3.1430078 20
-8 1.5078942 5.4159598
0.2811904 2.3164501 18
8 -3.4404745 1.1783935
0.0465765 -1.4999999 18.42321
-5.95542 0.5 18.179245
-6.2456417 2.1273766 0
8 -1.2743587 2.3652446
7 -0.19505513 16.809811
-5.2275257 -3.7459791 18
-3.3433337 -2.5 19.569157
-4.6237049 -7 16.949184
-8 -1.2738695 1.3255756
-6.9999995 0.15779449 17.568119
-5.1474857 3.5 19.350916
-2.1756313 8 1.9138253
8 5.3815708 7.590982
7.5746193 8 6.8473668
-3.5777771 -4.5900235 20
8 1.2662277 9.1291237
3.3449883 7 15.780858
-2.9073074 3.569603 18
5.4020576 -5.6278219 18
-3.3152535 1.5 18.945366
-8 -3.599715 6.9731379
-4.3499413 3.5 19.703634
1.905586 -1.7720914 18
7 -1.4960761 17.241734
0.75303555 -3.7508299 18
-4.0634184 -2.5 18.009468
4.6145658 7 14.757006
-8 -7.1954536 3.1121459
8 -5.4733229 2.5347328
-8 1.776732 8.5165386
-6.2811837 -4.7446117 20
-5.7332282 8 0.76393366
-4.3173962 8 2.7768805
-3.2023213 0.14309168 0
-2.105022 -1.5 19.271959
8 -4.1169457 3.4298143
8 -1.0844226 7.1334391
-4.7878361 -6.3816886 18
4.4607964 -0.5 18.749655
0.90267944 5.0920262 0
2.5295968 6.4421597 18
-1.3105214 5.5 19.180607
-3.9763567 1.5 18.920572
4.0658226 4.5 19.307291
8 3.1075726 5.5427661
6.2909088 -1.0794065 0
6.8600073 -8 5.0021992
-3.9384174 2.5 18.364601
7 6.3856769 10.282415
-8 -3.248225 2.9099967
8 5.975666 3.7651923
-7 3.6574636 11.492023
-7 0.64513719 13.880629
3.821703 -7.2310925 0
-5.7017593 2.5 18.374542
-7 -2.6841745 18.620214
-5.2049942 -8 6.5345697
5.4946461 -7.5992427 10
-3.3170207 -8 2.8731077
2.1085262 8 8.8924026
-1.5529451 -7 12.674685
-4.4471617 3.7938766 0
7 0.61133075 19.517891
-8 -1.7349982 8.2863216
-8 -1.5831304 7.9008155
1.9265823 7 16.097502
7.8132982 7.4516554 0
3.4501185 -2.5 18.831184
7 -1.3213538 12.486864
-1.2704735 -8 8.6673775
0.62178993 -0.92335987 0
-7 -2.9363267 14.118671
3.9910283 7 17.139664
-2.1597209 -7 11.509939
-6.7781143 -2.8022573 0
-7 -5.7322116 13.574252
-8 -0.60643864 0.2343132
-8 -6.6135979 4.0404029
-3.1301215 -7 14.907723
-4.1581473 2.5 18.725754
8 -2.9704938 9.0123053
-7 4.1979294 16.557131
5.4074683 -7 14.910218
0.71331298 8 0.33076108
7 6.974052 17.695145
5.4013314 -7 15.679852
1.1019678 1.5 19.607759
-5.6710129 2.8265681 20
-8 -3.7372949 6.1803284
0.96803951 -1.5 19.502289
-2.36796 -8 2.3553317
0.34682703 4.0228438 0
-8 4.7634315 7.2542868
4.1540432 -8 0.94924277
-4.8573389 -4.5 19.156254
0.76746988 3.9526443 18
0.44132614 0.57828581 20
8 -1.191349 2.7747331
1.0822001 -1.3667829 0
7.5281868 5.1638532 10
1.7688168 -3.1793337 0
-3.8048954 6.5207791 18
-8 -4.2102785 8.6253185
4.6092644 3.5 18.55718
-6.1500168 7 10.784193
-0.32236087 -8 8.0506525
-7 -6.2909937 16.065437
-4.9076476 -8 9.8867302
-5.3698277 5.0554481 0
2.8218377 3.2256646 0
8 2.6124353 9.3675432
-3.2513046 -7 12.216992
0.1831181 4.5 19.372881
4.5462508 8 3.4620261
7 -1.6183642 15.46265
-2.457387 -2.0813272 18
-8 -1.0281254 4.3511658
1.9727049 3.8884006 18
-1.963254 -7 12.190395
-2.5238495 -4.1288066 18
7.5145111 1.5689769 0
-4.66994 -2.2860727 0
-7 -4.6126852 15.133622
4.358283 -5.5 19.051018
7.5400772 -5.3653193 0
7.4374695 -8 1.3662547
-8 -6.6529818 4.1387706
7 1.0334289 10.258134
-6.7895799 -2.9610233 0
7.5125232 4.4984064 10
8 1.5104208 1.9242598
4.9553661 -2.5 19.236025
4.6448393 -7 17.669806
-4.7876425 -5.3599677 20
-4.8299775 -7.9104114 9.999999
7.0050678 8 5.9850287
8 -4.8944941 5.9902844
7 -3.2975228 10.070731
-8 -6.1120019 1.5346286
-8 -7.9261436 7.048841
7 -1.882683 10.433699
-5.0785503 3.5 19.279984
1.5786399 7 16.410892
3.4444618 -0.5 18.806087
-4.1065664 -5.7364821 18
-1.2354603 -2.5 19.83806
-0.20057678 4.6470823 20
-2.4994624 -8 2.860481
3.9986815 -7 12.38208
-1.5090125 -8 5.1801085
5.4110179 -8 9.4321747
5.1542339 -6.8704405 18
-7.5905294 -3.9112377 10
-1.0817 7.7636633 0
-7 5.6611595 13.052149
-4.629705 7 16.690395
6.9084215 5.6104279 0
6.9044819 3.9420807 18
-7.87533 -7.1441078 10
-8 -5.2189193 5.0415916
8 4.5641651 1.8408575
-7 -2.9138243 14.335546
-2.445267 -8 8.9614315
5.9446921 -6.9999995 10.310271
-2.1064799 1.029598 20
3.0512257 1.5 18.683466
1.2210808 2.4332979 18
-6.5592194 -2.9894633 20
-1.8773968 -2.5 18.470673
2.9840188 1.5 19.531166
-7.8955908 8 2.468915
-7 3.5243964 15.652419
1.0310745 -7 12.860428
-8 -4.7100616 6.5879145
0.91967344 8 3.9811211
8 0.48591137 4.5187597
6.9407825 -7 11.511364
6.4771385 -2.4433975 18
3.0375061 8 1.4438456
-3.7119935 -7 16.452726
-8 6.310462 9.559639
8 -3.5367355 6.374155
2.6665635 -6.8480911 0
8 -3.3215008 8.9509525
-1.6023424 -3.560359 18
-0.90012127 -7.8849082 10
3.9962292 -8 3.5242968
-4.3988223 -8 3.2394657
7.6627159 -8 5.442019
-6.3204756 7 15.23594
7 3.3164833 16.913342
3.4227829 -7 10.080397
-3.8733416 5.5 19.540497
5.6773977 8 8.7655239
-1.2629113 -5.1328487 0
7.3207731 5.3012066 0
-7 3.4747648 15.843027
-6.0811548 1.5 19.454536
7.3484101 8 5.840106
-6.6253042 8 0.88824081
1.2383437 2.5 19.336647
-7 -5.9701867 17.973436
2.7862668 -7.0000005 12.306831
-2.1117094 -7 11.273315
6.5264854 7 14.053638
5.1782551 8 3.7107987
-7 -2.9240179 17.558846
-8 1.8620529 8.9731741
6.7038383 5.5 18.302118
0.37828875 1.8683671 0
-0.42502069 6.0653009 0
-8 -6.1031985 8.7471294
0.95664954 0.5 18.125528
-8 -2.4873343 9.3413906
-7 1.5828563 12.137376
4.9795079 -7 10.301805
6.4733405 -2.5 19.157116
-3.3325138 7 14.370106
-5.2312469 -8 7.3008299
-8 -7.4872189 7.8691916
1.7059314 0.5 19.683617
6.0562191 -6.4104242 0
-8 -2.9520485 9.029314
6.8614721 8 9.4464121
-2.9779406 7 14.52629
5.4056649 -8 1.1173829
-6.8743782 -8 9.6046095
-4.2253647 8 5.9614325
6.4557548 -6.5161972 0
-1.7562141 -5.5 18.467232
-4.0630183 -3.5000002 18.139446
-2.8026443 5.951067 0
7.4869051 7.011549 0
-3.4128718 -7.7504249 10
0.37674189 7 12.188353
-3.1850214 7.523921 10
6.1388817 -0.56412417 0
-2.2155566 1.3074083 0
0.85663366 -7.0399389 10
7.2404923 -7.0615897 10
5.5703392 3.5316806 0
8 -2.4601824 3.9971347
5.4637403 7 10.55928
-2.6750724 0.36162475 18
3.7230361 -4.6723328 20
8 4.8657265 7.6810184
-5.0515909 -4.8797274 0
7 -6.0006423 11.210627
7 2.8542237 18.876123
-4.4425807 -0.5 18.276495
5.998837 -7.9783883 0
8 -0.84355068 3.8968961
5.4653277 -0.43923134 18
8 4.6939774 2.8630867
2.0763352 -7 15.348523
3.6334095 -5.8520107 0
6.2201147 4.5 19.685883
-3.0601671 -4.5 18.880856
-0.6753273 -4.5 18.882454
3.9004445 5.3014231 20
-8 1.5245776 1.2829221
-8 0.68823004 3.6015928
-0.87756288 -2.0422621 0
5.5507441 0.5 19.707529
-1.9975653 8 6.2467275
7 -2.8665686 18.306652
-0.34952211 3.5 19.212038
4.9846425 -2.5 18.822849
-7.986208 -7.0147724 10
-7.7364273 8 1.4143181
1.9291821 -1.6489179 18
-0.2942965 4.5 19.039986
8 -3.7941244 7.3292332
2.90361 -1.9178247 18
0.67017937 7 16.376036
-0.5868609 6.4139781 0
5.0362916 -8 2.1864262
6.5285697 -7.0951715 10
7.2732649 1.5224055 0
4.9744968 0.20042157 0
-8 -0.34809208 6.8415594
7 4.2182918 17.836756
-6.007226 7 11.86011
-8 -2.7169847 7.7721062
-0.25780892 7.5343714 10
-8 -7.3620243 6.2433343
-5.617691 8 3.4207845
2.3047495 -6.1584911 18
-5.357728 -8 5.5781693
2.1266959 3.5 19.233332
-7 3.0803857 10.585567
5.6072998 8 5.7132726
-8 -4.8353996 9.3271027
8 -5.0176406 9.5800076
2.0714428 -1.5 18.165707
1.0804529 7 14.659948
7 -4.5153165 18.448118
-0.2498346 -4.6434612 0
5.6109552 8 7.958559
-6.9451427 3.5 18.222521
8 3.4321165 4.9168286
-5.6506433 8 8.9071198
7 3.2164516 10.348885
5.2897234 -2.5 19.186138
0.52934217 7 11.213177
-6.0352688 5.5538139 18
-5.4753418 8 1.6104585
-7 2.9147589 12.061043
-6.7091093 0.75731611 20
7 -5.9588037 15.939902
-0.51183891 6.8069005 18
-7.7574706 -3.9719796 10
1.5528989 -8 0.5365243
-3.7091036 6.2291865 0
4.8640661 -1.5 19.064171
-8 -3.7543921 7.0313826
6.7797699 8 1.2032503
1.1937213 8 4.700963
0.61457014 0.60871243 20
-6.0334005 7 14.969624
8 4.7702761 7.6236157
7 -0.22027875 15.527451
7 6.4789367 16.629028
5.2454705 7.2941918 10
-1.4514983 -5.9625478 18
-8 -3.8980718 0.038972661
-7 -5.9630513 17.098969
7 -1.2992167 16.870813
8 -3.8270934 2.8717046
-8 -6.3141551 7.8309388
-6.7156415 -1.5000001 18.13722
-4.2218637 -5.393476 20
-2.4020653 -8 4.9488301
4.9600658 -2.4626594 0
-2.3804283 -0.5 18.208534
8 4.5568447 5.6067247
8 -1.5946004 2.0090506
-8 -0.57376218 8.8956223
4.4338565 8 5.2550578
-7 2.8382294 15.188404
7 -3.282851 13.741444
8 -2.9080677 2.333931
-2.7107849 8 9.8546219
-4.0181627 -7 14.133291
0.62895656 -8 6.3977795
-7 3.9786167 11.621633
1.4914205 8 5.6410542
-1.4232609 -3.9359293 18
-3.7093058 8 2.2939725
2.718441 -5.6698732 18
-4.9434042 -4.5 19.115292
-1.8825846 0.5 18.551914
7 -2.8316875 12.899109
7 5.8774657 15.913026
6.6699576 -8 4.9102798
-6.7141104 -7.8644476 10
7.4435244 8 7.361969
-8 -0.93895036 8.9364758
-4.1616421 0.5 18.444443
-3.0582552 -2.6589859 20
-3.0124741 8 2.4279528
-2.5744319 -0.5 18.058249
7 -0.56552339 15.528786
-0.21868181 -3.5 19.675018
-6.5662837 -7 10.748682
1.2015376 7 15.732595
7 -5.3647108 15.697478
6.3407249 -5.5 18.88032
-6.3989544 8 5.6019688
1.3535483 -8 8.1327515
-5.086133 -7 16.424896
-7.8710704 3.3799183 10
-7 -0.99053049 12.906441
1.1792812 3.5 18.943939
4.3206105 -8 8.8980761
-3.2495294 7.5582824 0
1.3797152 -5.7119532 18
8 7.5835447 2.532481
0.28705955 -2.5 18.06703
-4.6731553 -8 7.7387118
7 0.31223398 14.911635
-7.0000005 6.2669449 16.23877
5.8980994 -4.5 18.662949
4.1151214 8 7.5357523
-5.6522856 -8 6.5819216
-3.7303271 7.7890811 10
-7.4760652 -3.3960748 0
8 -2.9176464 5.0813093
-2.8800449 -6.1587596 18
5.9229355 -5.5 18.408337
-7 -0.5246191 13.516882
-8 7.6580138 9.6705294
-7 -0.6385293 16.478815
5.8169327 8 8.8388491
-1.6974726 8 7.4677062
4.1151218 -5.9125261 0
1.5304605 -8 5.7302909
-1.364186 1.858264 18
-8 5.5178003 2.0319719
-6.3909149 6.3986831 18
6.1376967 4.9038148 20
-6.5970507 -8 7.5168748
-6.6056542 -8 2.6595039
8 -1.5635722 8.2005711
6.3718891 -7 16.158131
-8 6.8501682 7.175457
-5.3807311 -8 1.313851
3.7817819 7 13.177259
7 1.4180493 18.742619
0.53731298 -8 7.8391438
-3.9111402 6.1208639 18
-6.7920952 7 12.498674
-2.212378 -7 11.732787
-2.0145299 8 1.3875937
1.6053182 1.3192556 20
-2.7130954 5.5 19.307743
5.5008578 -1.2769147 20
-2.8524303 2.09726 18
-2.6817946 -0.38275576 0
8 -7.6244731 2.3102036
-1.8208802 2.0986307 18
-7 -4.0261297 10.844449
4.1214781 -3.5 19.46097
-8 1.8239748 9.2848892
-6.7735505 2.5 19.770947
-5.9880362 8 5.3059731
-8 -4.8370843 8.084156
1.9313161 0.39272475 0
7 -5.4080458 12.809147
6.0615788 -1.4358436 0
4.0566559 6.526433 0
1.9712701 -3.5413699 18
-4.0396819 -8 9.7537785
1.5705717 8 8.4260902
4.3324041 1.5 18.627182
0.02933836 0.5 19.190792
-5.7419443 -8 7.4371567
7 5.4697218 13.027152
-5.0661945 -8 5.294909
-3.5264282 -8 5.8755493
0.91077185 -2.2833669 0
-1.2071998 5.396111 0
-8 -0.82066607 1.6303706
-0.49187535 1.5 19.753712
-7 1.4323654 13.399025
5.3062458 1.5 19.536758
6.6822367 1.5864651 0
-3.2412188 -0.5 19.502483
-7.3373227 2.648679 0
-0.41207314 2.1548944 18
-0.66156292 8 5.0820599
8 -5.5177503 5.6467848
-0.79951227 7 16.691265
2.2485063 2.5 18.71595
4.3807321 -8 7.5446916
4.6508479 -4.5 19.875551
7 -4.2883954 16.251343
1.4538102 -5.819562 0
6.5759621 3.5524049 0
8 5.3473539 4.4567533
-4.6119571 -6.8281689 0
0.48333931 7.8882799 0
8 -2.7519643 2.2807946
-8 5.2128706 0.26435536
6.2118835 7 13.63283
-1.1758311 2.5 18.809483
-5.7242012 1.657716 18
-7 0.70129675 17.481991
6.6425743 -1.5 19.42614
-2.2583671 7.7689924 0
-1.4519665 7 11.821091
5.1479836 7.3004546 10
-6.1107864 7 16.651312
-7.7766328 -8 1.9404545
-7 6.0846233 16.882744
1.6721807 -7 16.564821
-0.49787688 -7.0000005 11.516142
-7.50033 7.8389893 10
6.3379087 8 0.89435399
-0.58688891 3.5 19.953548
-5.6150374 -8 7.8313346
3.8995509 -3.8159323 18
-7 -0.17227221 15.755182
8 -2.4549818 0.740547
-3.9169931 -8 0.36017287
7 0.50176501 14.487602
5.1141739 6.3347015 0
-0.40280032 -8 4.8109589
-7 -3.9936142 15.538965
7 -3.4453073 16.927605
5.4260302 1.910929 0
-2.0477874 0.5 19.441917
-8 -7.2225862 1.7886872
8 2.5163832 2.5748644
6.9823813 -7 16.974606
-0.05649972 -7 10.95628
-8 2.2476749 6.792304
5.4521751 8 0.86944282
1.6330138 8 3.91329
-4.9532318 6.8226833 0
6.3974438 -0.5 18.685452
5.5624256 8 9.077075
0.31531739 -4.5 18.406998
3.923485 -2.3745828 0
-7.1721005 0.51585579 10
7.8270688 -7.8669686 10
-6.4811792 7 13.531897
7 6.0958543 15.750525
4.0076694 6.0496912 18
8 -0.36180139 7.7945509
-7 0.6008513 10.964943
8 5.0047274 6.7029095
2.5111132 -5.4999995 18.071547
0.26575339 8 2.6919198
6.9886036 -5.0962462 0
1.1214604 7 15.909124
2.0690496 7 11.531729
-8 3.9266849 5.9802885
8 -6.8322501 3.6288509
6.5396423 -0.98689961 0
7 0.52760375 19.34614
-0.97487468 -7 17.354565
8 4.7145033 0.64495832
-7.3534756 -6.2152205 10
-1.5004138 7.4131293 0
-3.0326397 5.5 19.554018
7 6.3076057 14.561866
-8 7.2482538 6.1217585
-0.40990013 -2.5 19.866819
-1.7133262 3.5 19.970425
-7 -5.9302306 16.946823
-7 -0.30626655 11.553388
7.8651142 1.8528078 0
-8 -6.9578161 4.5892363
-0.63531995 -4.5327592 20
8 -1.998438 8.0711765
-7 6.1225376 10.382994
5.5184884 7 16.646399
6.9999995 -3.3046718 10.304307
6.117362 4.0266323 0
8 2.1726475 9.8749504
-7.3606567 8 3.4679203
4.1072006 0.69257224 20
5.793869 8 5.051527
-6.4540796 -8 2.4958882
8 2.51297 9.5468597
-6.3601089 6.4479036 0
-6.2724018 -4.8183851 0
8 0.1984694 9.1921005
-2.1171865 7 13.864066
3.9091403 0.5 19.859671
2.4391568 -0.5 18.711031
-8 -7.5274448 2.3375299
-0.47880459 8 6.6679564
-0.61127466 -7 12.793818
-8 7.6822314 2.5163856
-1.4193616 1.8159344 0
0.82785511 2.6580238 20
3.975585 0.5 19.557655
-0.55072784 4.274806 18
-7 -3.2066643 12.528431
3.1026659 7 10.9098
3.0176558 -0.029868782 18
-3.4020369 -0.5 19.105564
5.9923606 8 6.8065252
-0.20416594 7 11.920959
7 4.6666923 16.194817
-7 -4.540359 14.555007
-8 -4.7117829 4.7298961
-8 3.5307829 9.9350634
-2.0274429 -7 15.611869
1.4161291 -0.5 18.795074
-7.2608023 8 3.1085691
-7 -0.65120465 19.773966
-7 6.9807892 11.495993
-2.5255742 -0.5 19.693182
-3.9791954 -8 5.7036138
-5.4861484 4.5 19.85779
-4.1328716 -5.5 18.043953
7.3007727 8 5.3688345
1.8067459 3.5 19.793936
-4.5171347 -0.5 19.226612
6.6991673 -1.5 19.325333
-8 0.52292532 3.7016549
-3.8144941 4.5 18.870064
3.2947252 1.5 18.10252
-7.6892133 2.3238962 0
-1.7476943 7 11.908699
-3.5465994 -7 11.451321
7 -4.6705084 16.145632
2.2980764 -0.10275912 18
7.072093 -8 4.2704239
-2.4869213 6.652257 0
-7 -3.0000515 18.778511
-8 -0.64415884 4.7509422
7 -6.0124273 15.193705
3.2917795 -2.5 18.972364
-5.6576023 -8 9.4829216
-2.0769634 -0.1676327 18
-8 -5.7817898 3.154655
4.4580345 -4.5 19.841377
1.1692731 8 5.8932414
-0.96787548 -8 5.1222796
8 -1.734737 3.9270353
3.8638635 8 5.8152151
-8 2.9380763 9.1074858
-4.9982667 8 1.7690563
4.3826127 7 17.808043
-7 -2.6961207 17.125645
0.82240778 -7 13.392853
1.8948317 -5.3397913 0
4.5511761 -4.5 18.161427
4.5427456 -2.5 19.271011
3.3972943 5.5 19.84845
8 -3.3919566 2.5824909
4.9735546 5.1161814 20
-3.0326867 0.21074533 18
3.5197735 -3.9504519 18
7 -3.1793036 11.127975
0.90531898 3.5 19.098619
8 0.83726406 5.437007
2.3318071 7 10.039944
1.4979628 7.5906153 0
-2.8752799 -2.5 19.940605
-1.9024726 -7 11.610074
4.2845058 -7.5617213 10
-8 -7.4065547 2.4908705
2.6068716 -7.0000005 17.135511
1.2130594 -2.0223503 0
-1.6938677 8 6.3129349
-7 5.4377799 16.929752
7.8764462 -2.1560121 10
-7 5.7275748 15.860475
-1.6791937 1.5 18.873533
-8 -7.6223769 9.7651396
-6.9999995 -5.8084192 15.181629
-8 -2.9730082 7.8205709
6.5625563 -8 3.6550999
-0.016942978 7 12.456409
6.7917604 3.7674885 18
-8 7.2590599 1.2522395
-2.965126 -2.8898501 19.999998
-6.9919758 7 15.432439
8 -7.0266871 1.0694644
-2.4070191 7.3012338 0
-8 0.82565606 3.4786427
-7 3.8946965 17.197544
-1.8795748 0.5 18.187138
5.5992441 0.61166465 0
6.5366898 7 12.194572
-4.9862137 7 10.500257
8 4.2563066 4.4405355
-4.0601234 -7 12.306083
1.5899054 8 1.797772
-0.34425926 -8 3.7391889
4.615634 -8 7.6572409
-2.3697491 2.4826691 18
-1.1941431 -4.5 18.186901
2.228565 -1.9477146 0
-4.6258731 -7 11.626974
7 5.6993861 12.761153
0.1750474 7 13.373844
-6.2637882 8 2.0956235
4.5235987 -2.5 18.278105
2.583169 -8 2.3729651
-4.2807922 1.5 18.874954
1.9021966 7.0058146 0
-8 3.149621 1.5163404
1.6667218 -8 1.1961164
-6.5905066 8 9.1522608
2.2979622 -3.5 18.970169
-7.6483908 -7.491106 0
-4.9371538 4.5 19.242361
-0.33498096 1.7074082 0
3.4379091 -1.5 18.696285
-7.6837435 -0.79416442 10
1.8730654 -3.8044376 0
-0.44726706 5.1661687 20
5.3800154 -8 0.87683368
1.2401779 3.0213265 0
-6.5544996 1.1442738 0
-0.078133583 -4.0308208 18
3.9437931 7 15.716993
-7.1979136 -1.3487229 10
0.66194916 8 6.4040184
8 5.09305 5.5926299
-8 -1.4554973 2.2870908
4.6740398 -8 8.154458
-5.6601529 -6.993576 18
-5.365746 -8 2.9308321
2.8616085 -3.3856597 20
7 -4.594873 19.62011
3.0875721 -3.5 18.214222
-7.8545361 8 4.9226866
4.9339647 1.5 18.97715
-8 0.02495575 2.8972042
-5.3537006 -4.6524138 20
-2.2555704 3.6579583 0
6.0836468 7.278183 0
2.2723217 8 5.4208746
7 -6.666152 17.73193
-6.7111673 8 7.1349907
-8 -2.3992364 1.7025764
5.0708628 -8 7.8311639
-5.940362 -4.5 18.79155
-7 0.57811069 17.964369
5.6101398 -1.5 19.690191
-6.3589611 1.5 19.799391
7 1.8900467 17.654642
-0.038396835 -8 0.054935142
6.397831 6.2663651 0
6.3956327 3.1108637 20
7 -2.5552006 15.970135
-4.4388704 -3.0967016 20
-0.86538792 -2.5966768 0
-7.1358004 -7.346571 10
-7 0.070312202 16.128208
4.7944589 -8 8.6327019
-1.5591078 8 4.6948323
4.4124546 2.7776356 0
5.1554089 3.5259295 0
7.4450445 1.8597472 0
-5.536705 -1.390722 0
3.8083787 -7 13.697886
0.10555649 0.15681744 0
8 4.7546067 9.4292984
5.3940754 -4.5 19.002422
3.8509741 4.5 18.800447
-5.3238182 -6.2307129 0
-8 0.73568112 5.2832913
-7 -5.5969801 10.915155
1.7471123 -4.5 18.753422
1.6424711 8 7.4697065
5.4606271 -7.6343493 0
7 6.8764129 16.784788
-3.6690502 -7 12.463935
-7 5.1499767 12.603552
3.5608923 8 8.3800545
-2.1154397 -5.5 18.215786
-0.3883152 7 11.157852
-8 -3.6879001 8.9736376
-7 6.3423905 16.288132
-7 4.2442436 17.602419
-5.9207025 -1.5 18.081886
8 -5.624362 3.6235604
1.1159842 8 7.7923756
-2.2803879 -3.5 19.655823
7 -3.2983832 15.415865
5.0816174 -2.562803 0
1.4794102 -8 6.3707285
7 -2.2557502 17.224068
2.6745906 3.5000002 18.304699
8 4.2906828 3.0433304
1.4729705 5.5 19.33852
6.6090994 -8 9.3946733
-7 -3.8450003 12.451927
-5.5917573 -6.8951044 0
7 5.4686041 17.079994
-5.3732271 8 6.658926
-3.2258897 6.9768691 0
-8 2.7144935 5.1876659
-3.6364946 -4.4563828 0
-7 -4.8537993 11.384624
-6.1875949 0.5 18.454056
1.7396606 -8 2.327688
-4.6115279 -8 9.5717468
-3.8115315 -7 15.892273
8 -3.3412602 5.5884113
6.6125016 -8 8.1470423
-6.1356692 1.5 18.316898
6.7923789 1.5 18.269306
-7 -5.1103215 10.622576
0.72759628 8 2.6692586
-7 0.65057373 11.74239
-5.8771219 8 1.8558135
-2.7346277 0.5 18.595432
-4.25776 7 15.834843
8 -5.7674513 8.2478867
-1.9321384 -2.5 18.326517
-0.20948982 2.5 19.123058
-7.5207262 -1.8465834 0
-2.9076424 5.3387561 20
-3.1471844 -7 15.745386
-8 -6.1314783 7.1765609
5.943521 -2.5 19.775011
4.5160098 0.5 19.65807
4.0742764 -0.5 19.209425
5.5834322 -5.5 19.354481
5.932888 8 1.9522607
-7 6.3993473 16.111774
7 2.3027666 11.361834
7 -2.6734104 18.761452
-0.17750907 4.5 18.436047
-1.6457796 7 17.807095
5.2243409 -2.8806753 20
3.8064878 4.0945568 18
6.3935504 6.670063 18
8 0.95566511 6.4354382
-8 -6.8765006 2.7153888
-6.1045284 -8 7.5097175
0.89101315 -5.295248 20
-7.0000005 0.98761094 16.196674
-6.5560007 5.5 18.874361
8 2.9358673 8.91716
8 3.0732012 0.83605164
-8 2.3274436 1.4144841
6.3260627 -7 11.154503
8 2.7339239 1.1603694
-4.1366997 5.0992355 20
-7.8071613 8 8.1293879
5.4839306 6.9867234 0
7 3.5218248 13.475897
-0.73254681 -2.5 19.005066
-5.7424202 8 6.0212145
-8 2.2614262 0.05730648
-0.43517494 8 6.107831
2.3172796 -7.0000005 12.096812
-0.054986954 0.5 18.726864
-0.10397243 4.4801564 0
4.1456294 -8 4.6462636
2.762732 7.8946252 0
-0.1274395 7.2568793 0
-7.9389625 4.8215122 0
-2.7980256 -1.3900211 0
-3.298465 -7 13.6318
-5.8760386 -7 16.485237
1.3610859 -3.5 18.920162
-7.4968662 -0.568923 0
-0.95145893 -2.5 18.294304
-8 1.6779714 7.9919624
0.93736571 -7 12.463818
-6.2324848 7 14.350112
-8 2.2711806 6.3868737
-6.9999356 0.5 18.117733
8 3.8680897 3.8272974
-3.7563939 2.3008356 0
-2.4797444 2.5 19.935823
4.3120561 7.0000005 17.865646
-6.1551819 -3.7275326 18
6.5059929 5.5 18.592344
-4.1467466 -0.014633179 18
0.87902355 2.7474916 0
-2.453131 7 12.880305
2.8723955 -8 2.7667046
6.7910247 -8 7.9415679
5.4291782 -3.5 18.354309
-8 -3.8046188 1.1652541
-2.3064706 -4.5 18.239296
1.5848494 -6.1191673 18
-1.4356632 4.5 18.119762
4.1351886 -2.5 19.899899
-7 3.6032913 17.995358
-1.9240675 -4.464448 0
-5.8038425 -7 17.248577
-7.8207307 1.9909263 0
-8 -5.4176407 3.5207038
8 0.19161797 0.96392977
-7 -4.1005387 10.764152
-2.9670439 7 16.581041
-5.1820288 5.7489228 18
5.4864054 1.5 19.554743
3.2352784 7 17.649105
1.9315021 -4.5 18.384005
-1.4981387 -8 8.3518105
-6.3167667 8 8.2907133
-6.9346018 3.5 19.857141
8 1.8661633 1.2027363
3.511548 -7 17.615541
7.3413963 8 2.1760554
-5.3559999 -1.6418676 0
-0.67552042 5.5 18.454029
6.5305977 -2.5 18.137383
-1.1022401 7 15.429069
5.7348385 8 5.8421192
-2.3853478 0.40537184 18
0.65028715 -7 10.663847
-7 6.3448157 17.161566
-1.7971466 7 12.102613
-4.0101089 3.5 18.047831
-4.2233391 4.9718294 20
3.8116767 -4.5 19.581617
0.14634609 8 3.1515665
4.2499304 -3.9152179 18
8 2.1967087 4.4597478
1.5181205 -5.5876355 18
-1.6391059 -1.5 18.918762
2.9248919 5.5 18.891191
-7 4.3324752 11.94209
-1.1547395 1.5 19.820515
-5.696866 3.5 19.818861
-3.2576191 -8 7.9707127
5.9653225 5.7404122 0
3.7706738 -5.5 18.414757
-2.642658 -8 3.1924386
-5.016345 -4.6018 0
-8 2.5458779 3.9775128
-0.55631304 7 16.459558
-4.2353477 5.2866449 0
-6.7172174 -4.5 18.878498
-8 -3.068774 2.6289237
-8 7.2516184 4.7696123
1.2728271 -5.5 18.908052
1.746666 -1.2599291 20
-8 0.7267586 2.2316847
2.5208662 -3.5 19.382275
-4.2454605 7 13.608855
-8 -7.0630302 5.9843974
0.81100416 2.5 19.292776
-1.081409 -7 10.362728
1.5642548 -1.6359057 0
-3.8081217 8 4.7054982
-8 -2.13235 5.8047066
0.33876967 2.6082063 20
5.6964006 -8 4.7681923
7 -3.6439495 16.91008
-6.1615162 7 12.668376
4.6544828 8 7.0670919
7.6673493 -8 1.3822678
-7.4969597 -4.1983986 10
-4.096519 -7 14.494101
2.4902709 -7 12.057205
5.5870867 -2.6591637 20
5.4022279 7.8563581 10
-1.4831047 8 5.3991461
7.5610271 7.9500399 9.999999
-8 -3.710088 8.1837025
0.78150582 -7 13.136852
0.40612698 8 7.3370767
8 5.2791023 0.19272956
0.011003494 0.19307318 18
7.0956111 0.90295398 10
1.9234306 -0.31805813 18
-5.4155817 -8 3.9025137
-8 1.5795012 6.3871279
8 6.2309155 9.4310646
-2.7374344 -1.5 19.762276
-8 -1.4716603 8.0291138
7 4.3434844 15.966226
-2.5315144 -0.73422718 0
-3.8479292 4.8835106 0
-3.1589472 7 12.8409
-8 -6.663414 5.2671819
-0.71965504 -4.3001733 18
-2.5506282 -8 2.5790594
-0.2584486 8 8.0096149
-8 -3.840543 3.6766026
-1.0613785 -4.5 18.405083
3.9430118 -8 7.1679502
-0.95976591 -6.9337387 0
3.3386178 -7.1545978 10
-8 -3.862607 1.2446742
7 -1.0806928 10.30231
4.3623857 -5.5 18.099754
-7.9040246 -6.380414 0
0.22834778 -5.0982218 20
8 -4.8044109 5.4385996
-8 5.1715207 3.089875
-7 5.5744171 15.932738
-3.8207114 2.0608108 18
5.3856654 -8 0.95563042
-3.0440831 2.5 18.912563
5.8213177 3.0693474 0
-7 3.8864548 10.220181
-6.3179774 -7 16.435266
-1.9984515 -7.7393742 10
7 1.4779739 10.080772
-6.2377801 2.5 18.693472
2.6953969 -7 16.259926
-8 7.9064054 5.9885311
-3.926446 -6.741962 18
1.2720199 -8 7.8905849
-3.517421 -4.3387079 18
-5.3000689 0.65461802 0
-0.3699697 -5.2760191 0
0.2093997 3.5 18.006397
-6.8777885 7.0793223 0
-4.263906 -4.4006958 18
0.73308432 -7 14.980515
3.3030276 4.5 18.124647
5.3477077 3.1043761 20
-0.32291889 -3.9972703 0
-1.4788504 8 4.6460676
8 2.0108528 1.8876783
7.585784 6.9629841 0
4.4816728 -7 14.705087
5.3000698 -7 15.492804
-6.9247599 -7 13.569845
-5.3601398 7 12.653445
8 5.8370085 7.9327536
-5.2979856 7.8477511 10
-2.8573709 8 1.4980316
7 -0.058357775 17.539673
2.9803638 -2.1249764 18
-6.3792648 -2.9854202 0
-4.1299362 -7.0835752 0
8 1.9002972 7.9938092
0.38723183 -7 13.939837
-2.9198289 -7 17.675022
2.9502099 3.2259803 20
-5.5131607 -0.5 18.345253
-3.8483152 4.1131434 0
-4.6740761 -3.4337459 20
-0.63021576 -2.2468662 0
-5.2547817 -7 14.538765
-3.6138015 7.3023906 10
6.3768449 4.3945198 18
-7 2.8590701 11.118498
1.3308086 7.6761541 10
7.6381669 8 6.1178484
5.0037031 7 17.809851
-2.9003236 0.5 18.531672
1.6074467 -5.0853734 20
-6.6263094 -1.5383288 18
-2.263103 -2.8326759 0
6.8384438 -1.5 18.24118
-5.0804195 6.8428049 18
-5.7540913 -8 5.1696658
-8 4.7328305 8.6547174
-6.7840619 1.5000001 18.138258
3.3854737 4.5 19.644629
1.6751593 -3.5 19.518089
-1.7661757 -1.5786567 18
-2.6821022 -8 3.5852146
8 -1.2848394 2.3764091
-4.076272 0.5 18.226913
2.015662 -5.6597357 0
-1.0477509 7.1833272 0
-1.2990732 -1.5 18.355965
1.8535147 6.2409716 18
6.6640368 -2.5 18.954807
3.6604738 3.5 18.250885
5.5456023 7.0730948 0
2.151475 8 6.5146117
5.4488192 -8 5.5673351
1.9695063 0.5 18.341162
8 -7.1312351 4.0750184
-0.73166871 -6.6100702 18
-2.1882286 8 7.4287186
1.8991013 -7 13.420118
-4.7591019 -1.5 18.027901
-4.9332752 -4.5 19.975531
3.1808367 -8 0.22407454
7.3825717 8 4.0051842
0.34428871 -8 3.5036213
-7 3.5995164 10.074638
-5.1267605 -5.5 18.108675
5.0664062 -1.5 19.920313
-6.3944063 7.9456439 0
-3.908185 -6.1334653 18
-2.9176223 -7 13.121355
7 -4.8037333 16.113091
3.8948708 -5.5 19.015856
-5.9596124 -5.5167589 18
7 4.8932934 18.549866
1.4672103 -8 8.2164507
-0.3648386 -8 6.7953806
-0.74370551 1.9234653 18
6.3991423 7 12.936628
-1.1046431 3.0466437 0
6.9999995 5.7358742 12.009297
-8 -3.8587441 6.3491421
0.84698391 -3.5058289 18
8 7.2962284 8.3188334
8 5.3783007 0.20767701
-3.5253525 4.5679617 0
0.60728884 -8 6.4172974
1.2593343 7 11.620844
-5.4752793 7 17.631603
-4.8811326 5.5398536 18
8 2.506187 9.0903215
3.6047525 -6.9999995 16.893696
1.9349999 5.5 19.377178
0.93120128 -5.9713821 0
-0.067175388 -0.5 18.088539
1.2853739 0.5 18.17671
0.30880958 -7 16.814203
-7 3.329072 19.262636
2.6402853 8 8.6851454
-8 0.37519681 9.4306288
6.9412851 -8 5.1444211
-8 5.1463876 9.5929546
-7 3.9749148 17.635893
6.3925447 4.5 18.361828
-0.095639229 -8 8.8843679
8 2.5427341 8.2923775
3.0996566 -7 14.288525
-8 7.7132883 2.0132589
-0.4699018 -0.5 19.100677
-7 5.8731632 15.704956
2.5476823 -5.849453 0
-8 4.924933 0.41392484
2.4506412 -3.3653917 0
3.4589396 -8 7.1859369
-7 -2.9888287 17.475382
-0.88999128 5.5 18.54221
3.9047997 5.5680108 18
4.6375189 -8 0.47235698
6.1382947 8 0.25126934
1.3209738 8 3.3517675
-8 2.0753369 3.2874749
8 -1.2334015 6.1712937
6.1654983 -7 16.530815
5.3292332 7 10.562708
2.1924806 7 14.807863
-3.1016111 7.4309444 10
-0.75840759 2.6709478 20
-3.8612356 -4.0878844 18
-3.3116241 -7 15.114102
3.6164246 7 10.290298
3.1867828 -8 1.7009877
-0.98644292 3.6986966 18
0.16799831 8 9.7773514
-7.5191274 -8 9.6196861
1.7313932 3.5 19.567814
8 -3.0345373 0.1613169
-8 -6.6025529 2.4322917
6.5140362 -1.3543458 20
7 0.92876005 16.957247
-7.8075151 -8 0.72588778
-7 -3.2079301 14.13806
-8 6.7634306 1.7873328
8 0.94799805 9.6286678
8 5.5652905 7.3177924
-1.1518433 -8 8.1936216
2.8841197 -0.5 18.337469
4.2739482 1.1640027 20
1.4339087 8 7.6342611
-2.9882936 8 0.98367274
-5.6722574 1.3024313 0
-4.4462261 -2.7373772 20
-5.6005707 1.5 18.239002
7 3.8664086 15.996039
1.7670045 -7 11.309807
8 7.8148251 8.6844931
6.5489006 -1.3896788 20
-7.663065 -5.9861946 10
-3.6059353 5.5910559 0
-7 -2.4752159 13.40332
-1.1144552 8 6.5461082
-1.4360697 1.0674517 0
-6.7239194 -7.2626305 0
6.5009489 8 1.6340411
-7 -2.9968443 18.73135
-3.7431619 2.5 19.621033
-3.3320274 -5.1774073 20
-5.8887157 -5.5 18.053608
-4.3138828 2.5494645 0
8 0.81623125 7.6403289
-6.2765236 7 10.187137
6.6186018 4.2186208 0
-8 5.2268195 0.7249102
-6.95959 -0.76169634 0
7.1568079 6.4572744 0
5.5905609 -3.3920031 20
0.00090456009 -7 13.184706
4.2047849 7.4238963 0
2.1018996 -7.7912173 10
-3.8350806 -1.5 18.092558
4.2876649 -7 10.479864
6.8034439 -6.9999995 17.24552
6.6620426 -5.5 18.148188
6.6924019 1.7517905 0
-3.2234306 5.390995 0
1.6683933 -8 5.6603947
5.5563793 8 2.9985774
-4.0084009 7 15.102449
-4.8421741 -7.1267443 0
-6.6187496 7 13.979244
0.37170219 -3.4999998 19.426405
-3.0239978 0.5 18.618725
-5.7331114 1.5 19.8836
6.8733215 4.5225554 20
8 -4.2769346 0.14798105
-1.5934153 -4.5 19.213619
2.0761559 8 2.2671075
8 -7.2043409 5.3746586
6.2219834 8 3.8650119
4.167408 7 10.206233
-8 1.5221136 9.3563919
8 2.334949 7.6323977
-7 -3.5579851 16.685532
-2.2423151 -7 13.943634
-5.6705637 -7 11.386774
7 -6.2859154 10.510323
7 1.4381379 17.07769
3.1588316 -1.972645 0
-8 -4.3508139 8.7850313
-0.45818186 -8 6.7390938
-7 1.9097682 16.43923
-8 7.7692299 3.0697443
4.2061872 -1.5 19.445299
3.3260756 7.539125 10
5.3242273 1.8357811 0
0.7540493 -6.4499311 18
5.2423916 0.45129359 18
-7.5478477 -8 3.3053856
1.9875461 8 4.5243549
-7 -0.81037402 15.635168
5.7756343 -4.5 18.826199
6.1606679 5.5 19.106054
-4.2781072 2.5 18.83139
-1.4605769 -7 16.491985
-1.2297864 2.5 19.716028
-7.1394181 -8 6.7817597
7 -6.3616762 17.76897
3.1211913 -3.605953 0
-1.3200132 3.1862392 20
7 3.7755032 13.449997
-1.6576061 -5.5 18.143265
4.4857202 -7.0000005 12.910978
5.8173847 -7.2726016 10
-4.4571342 5.0524893 20
-3.2848439 -2.2824183 18
-7.7878895 8 5.2734804
-8 1.2438624 7.9414349
7.8219676 1.3655003 0
-8 -3.1447945 1.003831
-7 -1.7239559 12.286116
-6.9999995 -4.1399994 10.815165
-1.2840207 7 16.326326
-8 -3.733731 3.279315
2.4441433 -0.5 18.31424
-8 -6.5994229 9.2139053
2.653496 8 6.8878875
7 1.0431854 18.759731
-7 -1.00182 13.220802
-3.55878 -4.5 19.523729
-3.9967923 2.5 18.605042
8 4.5950127 2.8175271
-6.9951639 -1.1094856 0
-6.9999995 -1.2382069 18.15789
0.14812732 -7 11.104445
3.3539872 -4.036015 0
-8 -4.4279037 1.6301055
-8 -1.8830132 8.160141
-6.3149443 0.5 18.839338
-7.9019146 8 4.6712685
-7.3915806 8 5.7226667
