# .PCD v0.7 - Point Cloud Data file format
VERSION 0.7
FIELDS x y z
SIZE 4 4 4
TYPE F F F
COUNT 1 1 1
WIDTH 1953
HEIGHT 1
VIEWPOINT 0 0 0 1 0 0 0
POINTS 1953
DATA ascii
-7.1501198 -4.313951 10
-5 -4.1631351 6.3828063
5 2.0252566 6.5674906
3.8124981 8 5.703229
-5 -2.1929662 1.1613832
0.85882533 5 0.28450635
-3.0816481 -5 3.1979847
8 -3.2632532 0.77119255
-2.4384003 2.791476 11.659143
2.4514751 -8 2.5454981
-2.4830959 0.18367592 10.51194
-1.4001131 5 4.2960773
-7.9312878 -7.9260416 10
0.038399737 -3.9356973 18.049423
7.427475 -7.7618742 0
2.3481863 5 6.6888585
5 3.6015301 4.9563336
-3.678241 -3.2504556 8
5.7854929 -3.032886 10
-3.2260873 -0.54901886 10
4.7384892 1.1659682 15.967123
-6.8660054 -8 5.2336526
7.0427823 -5.3970313 0
6.6184807 0.45603871 0
-3.5296557 -5 2.1251702
-5 2.0172768 7.091311
5 -4.0629807 2.6275551
8 -2.428443 0.48137715
-0.4976685 8 4.3008161
0.38499519 -4.6486659 13.250958
0.44898957 -4.4045377 17.27474
-4.9869471 8 6.8253641
4.610816 -6.0147815 10
3.3198094 -8 5.1198006
-7.7105246 -0.80604219 10
-5.0999222 -1.0743268 0
-3.4674287 -6.9357638 10
6.1897268 -5.4475698 0
-5 -3.5045156 2.2438083
8 0.66907191 8.8897753
0.091289282 8 6.6685224
5 2.8704681 0.096892364
5.9373341 8 0.52603424
-7.9521856 7.0305095 0
-0.20220137 5 4.3353658
3.4098265 -1.3416058 18.391239
-4.208231 -7.1093082 0
7.4895496 -2.2719193 10
6.0669565 -8 1.9471495
-4.3815928 0.086585045 10
7.8060093 -8 2.1482995
5.8163061 -0.29934865 0
-2.9028797 -7.57512 0
8 -1.0694667 7.0521655
0.15618801 8 4.4837923
-4.6729617 7.2462053 0
8 4.5874901 4.6903839
-6.0735087 7.6485672 10
5.3911777 -8 7.9805617
-5.5060425 6.8222036 0
-5.1041317 2.4844196 10
-1.5204206 8 0.97277045
-8 6.1997547 3.9489861
-5 -2.1822562 0.68490314
3.0207324 6.4999123 10
-2.280097 -8 1.7883747
5 -3.2042542 2.1442626
-4.2116294 5.2689548 10
-3.6794081 8 3.8297961
8 -7.2654562 9.2516413
-0.84219742 8 8.5488167
-2.0619652 -6.0138574 10
2.5862525 -3.4381967 12.484514
5 3.0222008 4.4682021
-8 6.1767621 6.1608863
-5 -0.84316456 1.5865517
-1.6286812 8 8.3081646
4.2148004 -2.4650233 14.007462
-8 6.7322659 1.7287889
2.7620792 3.3521743 10
8 -7.9969354 9.6664333
-6.1508379 2.4011366 10
1.6240404 -2.66889 18.88703
-4.3755503 -5 5.3996344
-6.3857021 6.6454639 10
-6.058187 -8 7.0954986
-4.5087852 -5 1.8467633
-5.4444447 8 8.8985977
8 4.8254309 9.4196186
-3.2320702 5.0782871 10
-4.2268968 1.0158229 12.575455
-3.5763762 0.1231996 18.476009
-5 3.1067934 7.9695182
-2.3143523 1.3830141 19.189037
2.4864285 0.11611185 10.263661
1.5728452 5 7.1326184
-5 1.8597687 3.428401
-2.6792006 -3.1244357 17.822596
-1.4224811 -5 6.0063629
-5 3.0349331 5.0338659
3.7736268 -8 7.6093464
5 3.7950754 5.7586145
8 -2.6299095 1.6439525
8 -4.4763775 1.7934172
-4.7765427 8 5.6250114
-0.25694823 -8 6.4271135
5.8860245 8 9.6268787
8 0.40587449 6.2373133
-7.0293121 -7.0627184 0
-8 -5.2061801 2.7250767
-5 -0.28192472 5.05512
-5 2.091557 0.31203461
1.9192426 5.2968426 0
-4.0169768 -3.7581825 8
-2.3244355 5 4.6204362
7.809278 -2.7793999 10
4.4961348 5.0923166 0
4.2025414 3.05704 10
2.0618482 5 7.6096005
1.5584867 5 7.8526621
-3.9816875 8 6.6634607
-5 -2.9109902 4.5034628
-3.8580208 8 1.9137156
7.4235921 -3.622519 10
6.0539374 -8 4.8956323
-0.20855117 -5 1.8410811
-5 -2.5738816 7.1476984
8 -7.8509617 5.1674423
6.5922251 8 9.0474539
-5 3.7788715 7.2077737
1.851928 4.2057686 16.920139
7.6752725 -2.5246124 0
-2.2130826 3.8456438 8
2.3927121 1.8505765 11.037664
3.116971 5 4.0118704
-4.530211 1.9722782 8
-5 2.8377085 1.2180648
4.9541779 4.297246 10
4.4149551 0.55411971 10
0.77270746 -8 0.25318196
-8 2.3534403 0.48119223
3.2580547 5.2048244 0
7.115242 -8 7.2842879
-3.2732573 8 6.0302978
-5.5132494 3.5706568 10
8 -7.7574282 5.7845802
5.7671885 -7.3325305 0
7.4299159 8 0.010156035
8 -0.82766438 2.9666195
5 4.3666267 4.579021
4.7068367 -5 3.3250804
-2.2996042 5 7.1702952
-4.5088758 -5 2.7734632
0.58219099 5 0.83241349
-6.37533 -6.2142854 10
6.4508114 -8 2.9975495
7.2870798 -8 7.2298317
4.548697 0.40869948 17.02162
-1.8331434 -4.6148281 15.346282
8 -4.1567221 8.2930689
-4.4227996 5.4910679 0
8 4.2088509 5.5656924
2.3342209 6.2075605 10
8 -5.9354057 1.2020042
4.2073278 8 5.4644275
-0.86764336 8 8.2259378
3.2087495 -5 2.6733041
5 0.46805465 4.6157441
-3.3924074 5 4.0643754
-8 5.8291321 7.8362637
-5 0.66989899 6.4938941
8 6.7339077 2.3041098
4.7023091 -7.2766433 10
0.73497462 -2.4542837 10.717584
2.1629372 2.5357361 11.293243
7.5784469 8 4.0004816
-8 7.4154906 0.34715635
-4.1921148 -0.14388669 10
8 2.9394951 0.53506356
3.0954154 4.0417137 10
-8 4.4896703 0.71140087
5 -4.2740154 5.6737652
2.7668352 3.453033 8
-2.8722885 5.9702005 0
-8 4.7925687 5.6020145
4.0740323 5 6.943275
-1.467221 4.7442708 15.511915
0.90380001 -7.4876957 10
4.1671972 -8 6.2458544
-4.2948675 -8 9.6835623
-5.3960123 -8 1.5325851
1.9218321 8 1.678561
3.2994008 -6.3598742 0
-5 -1.3947819 5.3502083
2.0787871 8 8.7412891
-0.74557173 -8 3.9184899
5.8817177 -1.9990511 10
6.4641032 -6.3627024 10
6.3883414 -8 0.94885314
0.64060044 8 7.4823947
-2.9699643 -8 5.5519981
-8 -3.2695479 1.0174663
-1.9072629 5.1912785 0
-0.86751258 -2.4591205 10.750121
-1.0165396 4.1063066 12.351908
8 -1.2660532 3.9051242
2.0581822 -8 2.5152972
-5 -0.4858489 1.3050961
-6.5100317 8 6.1700611
-3.9723175 0.56208616 12.050581
-1.8875294 8 4.4227571
-1.6033583 -3.6191854 18.019587
3.5331061 -2.3938634 12.416681
5 -0.88639235 3.085088
-5 -0.89736098 2.3295784
3.2831361 -5 7.664793
-5 -1.271719 5.4466987
7.2448578 -5.0089512 10
2.1399486 5 1.1438124
-1.1348845 2.5317922 10
5.004159 -8 5.054194
6.9899588 0.88658142 10
-2.6771674 2.61202 8
-3.5182357 -2.3099504 17.679617
-5.3367252 -0.26219201 10
-3.6418972 -3.3143411 14.282913
-5 2.4181435 0.70044565
-4.3091035 5 1.3494304
-5 1.7680422 1.0085135
-6.6549726 5.4469461 10
-3.6663325 -8 4.2306814
1.1955748 -7.3492613 0
0.060813189 -8 0.74512202
-5 -1.7723978 7.4985313
2.6837296 5 3.1988773
-0.34748173 8 7.9112749
-8 -1.434037 9.4949913
0.62854689 2.1259253 19.467628
-0.92532873 7.6359291 0
-2.6655941 -3.5549073 10
1.3492405 -8 4.5003142
6.316196 -5.3254757 0
6.400959 -8 4.4151306
-8 -2.8006198 2.7405126
-4.1932635 2.6793954 15.036994
-7.8636847 -8 2.1149344
-4.5337095 5 2.6888127
5.4560452 -4.2532024 10
-1.8252087 -5 7.0638342
4.1872969 2.489001 16.019171
-2.5662453 -2.7232141 9.999999
-0.69079638 -5 5.0280218
8 2.8191195 4.3301349
5 -1.3295435 2.4898968
-8 1.2957358 0.99331111
5 -0.088946342 5.3312502
3.3646746 -5 4.2548814
8 2.4480314 2.2431927
-8 -4.0229545 3.0711541
-1.3000567 3.3929915 18.421638
-7.1588202 2.3847375 10
5.9056182 -7.1215444 0
3.887547 -2.6549578 13.381046
-7.0353694 -5.7504992 0
-4.5673351 2.1276169 8
1.8448493 -8 8.9588156
-2.8007746 8 6.8430815
-4.4428315 5 0.32499203
-8 -7.8783922 1.4320737
0.92548311 4.7839189 13.906305
-6.9966068 5.4885178 0
-0.21861719 -0.58374864 19.960705
2.4312737 6.0361347 0
-5 4.1407471 4.8067842
6.3859639 -3.9919772 10
-8 -0.54109091 9.8109694
-1.5764418 8 9.5861435
-2.6630425 1.8029745 18.807901
1.1254759 4.6287203 13.550682
-2.0745952 1.5000775 19.27701
2.0992999 4.9662857 8
4.4124942 4.8453751 10
0.70408982 -3.4112146 10
5 0.16271257 0.60610884
-5.2303629 -0.024897337 10
-2.1387618 -0.038506269 8
-6.5200305 -7.9989009 0
-7.3917961 8 1.3352376
-1.3361943 -4.5075469 10
2.9058652 2.3811893 10
-8 6.522943 7.4320555
-8 -4.4016404 1.6635605
-5 -1.4372289 4.9199457
-4.3276615 -5 2.5965526
8 -2.7769442 9.3248434
3.8184156 7.1627455 10
-1.9674587 -4.0277286 12.838879
-4.9719033 -0.18501633 15.18877
-1.6102782 4.2167645 8
-2.6828928 -0.98340744 10
-5 -1.2707212 3.1527758
8 1.8474665 3.0886292
5 4.5305443 1.0732434
-5 -0.66802943 1.3369455
0.59231138 -4.3897843 12.729418
5 0.37151122 1.1545012
-1.9236346 -8 5.7024298
-5 -3.9610674 4.5870566
-8 4.5373192 1.5521901
7.2415242 -0.82813144 10
7.7339401 -8 0.98094696
1.1850904 5 2.7751935
-3.6469841 -2.1098053 10
-1.9880047 3.7755172 12.418717
-6.6503944 0.089529514 0
-2.2522545 -8 0.3999984
1.7853942 -2.754523 11.248578
6.4004602 1.89042 10
5.6823049 2.4559264 0
2.7035213 -0.85013175 19.100811
-2.9075656 -5 1.5774789
4.5690198 -1.1187388 13.378943
-1.4494596 8 2.0209253
0.9028765 4.358923 12.776293
2.9487329 -8 6.5942931
8 -5.376729 9.5567818
8 7.3808537 4.107604
-2.5814517 0.38156226 19.244596
-4.3158703 7.9664836 10
-4.6323099 -1.135288 13.584896
-3.2456393 3.7552762 15.441423
-0.73729753 5 7.696279
-7.4682426 0.77578902 10
-8 6.5386434 2.4356308
-5 -0.39797974 6.8151121
-1.7456782 1.4468595 19.446062
5 -1.4285467 1.568128
-6.9648023 -8 3.002161
-4.138958 2.2313304 16.626446
-1.2066391 3.8754079 12.112492
-7.4523573 8 9.8208799
8 4.215621 9.2168331
7.9830279 -8 0.057859853
-2.5527925 2.6033552 10
-8 1.2903064 3.8534763
5 -2.9529819 4.4926882
0.24866676 -7.2823381 0
-8 -0.73882616 6.8424015
3.2451997 3.6932669 14.210287
-1.3330531 -2.6225643 10
7.2601266 -8 7.1860943
-8 -3.3583267 3.7721257
0.064469337 -3.8307223 8
-5.6055756 -8 7.5116687
-6.7187748 1.1657567 0
1.2598661 -3.7649722 11.992733
0.99607158 -8 8.6442499
5 2.4393167 1.3264124
-5.3145351 8 2.8881502
-7.5040197 8 3.6076984
8 -4.7965193 1.85265
8 -7.6211429 6.7344432
6.2629952 8 6.6502929
0.79898858 -8 0.56566125
0.29424345 1.4282334 19.770901
-1.5685933 8 2.5257456
-5.5405712 8 6.1693716
2.493341 5 3.3425753
8 -7.0102434 1.4490609
5 0.33254194 3.7581148
-8 -5.0193348 0.39694026
-0.47699571 4.0790014 8
-8 -1.1516402 2.2396352
0.59538728 8 1.3988721
-1.81339 -3.3445966 10
4.6404676 5 0.088392727
8 2.0315952 3.0165265
-8 -2.5739183 3.6544185
5.5768647 -0.81737453 0
8 2.059866 6.2212901
8 2.6036348 4.7569132
8 -7.8553119 3.6996784
0.67834824 5 1.8807508
-8 -0.79949009 3.4788966
8 -7.8707895 7.7268095
3.5761518 4.9999995 7.1209502
8 1.182127 2.4654775
-8 3.5042644 3.622364
1.9621276 2.6181636 8
5 -0.88802546 1.769581
5 -3.7962036 7.7280836
-5.8514023 -2.2549846 0
0.10054255 -7.9126163 0
-8 -1.5199137 5.4056215
-2.8609681 5.7606568 0
8 4.7523727 4.7578478
8 -1.8030677 9.6918144
-0.5780313 -2.0816143 8
8 -1.9232371 0.80943316
4.1272759 -2.2933931 13.421842
3.0398636 -6.9733391 0
8 7.9481373 0.58971542
-8 0.85621059 2.111237
2.2044973 -2.2136903 8
5 -0.27794179 4.1947474
8 3.3304377 0.77250218
7.0218458 -8 1.5419112
-8 -6.8919334 1.4444346
-3.9575109 8 7.1877527
-5 0.92528391 5.5609636
3.3651829 0.4855741 10
0.43786025 5 4.5683913
-0.48330331 -3.9147496 18.035948
-7.9930329 -8 5.7385406
-4.9826117 5 1.8187494
-1.220849 5.9322271 10
0.75483835 8 1.6174471
-5 -0.13157541 1.0582528
7.2758951 -8 3.3319304
5 -0.93299687 3.6590424
4.0303864 -1.9279771 10
-2.8915644 -6.0804839 10
-1.377107 2.4545016 10
2.1379285 3.4540634 17.886053
4.2832894 -1.917933 13.344646
-3.0583222 -3.232594 17.245207
-7.2720938 7.1443553 10
4.3417454 -2.4184344 15.253621
-5.7742243 8 5.7415156
8 2.9371929 1.7224306
1.4673903 3.2279823 8
-0.36859757 2.9666498 10
4.7408834 -1.4848729 15.28726
-3.1275358 5 1.8244617
-8 1.2011864 9.1924152
-4.703145 8 4.4600377
-6.3272657 -4.9214602 10
4.1578312 2.6794634 15.637449
3.4944487 -7.4498777 10
1.5179954 5 6.2448993
-8 6.0977278 6.4271703
-0.8541081 4.0807314 10
4.2116747 -8 8.0074224
4.3640032 -4.9999995 2.8532319
4.2259364 2.0444868 13.335371
6.1702666 0.90954506 0
-3.1931787 5 2.7998753
-8 -7.5859933 1.2168359
-8 2.3710115 1.6707102
3.413698 5 0.093558945
-3.2898006 2.5952284 12.291895
3.3101854 5 2.7863014
8 2.5553417 6.3851113
8 -6.154211 8.131794
-4.6247826 -5 6.8025389
-5 -0.74586296 3.0231843
7.5876002 2.4055161 10
0.19711137 -5 7.3127213
1.7805666 -2.3643842 10.994418
7.724689 7.4909754 10
4.7722716 -8 9.5047016
1.558527 -5 1.5628591
-0.75622463 -4.4182539 8
-4.6011124 -3.3165598 8
-1.3240595 8 3.3822842
-5.1258974 -8 2.4526653
0.096571088 -1.7591872 19.665913
-4.6786032 -5 5.2757969
7.73242 -6.5119457 0
8 -4.9012361 9.8304024
5 4.2269125 3.4917178
-4.2344966 2.2464228 16.354973
-4.7265148 -2.0215843 10
0.35994279 -8 8.856041
3.3370023 -8 0.5225786
0.44463348 -4.4996853 8
5.3757076 -5.6317697 10
-4.0942593 -5 1.4626498
-0.38239384 8 4.3728075
0.10405165 2.9163654 10
2.302844 -8 7.719862
1.7486418 1.6548022 8
-5.861485 -7.1874709 0
-1.5303944 -8 3.4918971
8 7.9764013 7.4744658
7.2866592 8 0.090510845
3.2811127 -5.8771248 10
-5.1467829 4.0725913 0
8 -0.44892669 1.6389917
6.5336871 4.8845377 0
4.1320562 -7.6244621 0
-5 2.6674061 3.6774807
-5 -3.1288013 6.559824
-1.28341 5.0757437 0
-3.8756781 -8 0.57840472
3.7296762 2.7180665 13.088289
3.4213519 3.5938604 15.430094
-8 -7.3533888 8.2918358
5.9752669 -8 3.3960817
3.904844 5.6703568 0
5 -3.8518448 1.7851495
8 4.5609612 9.3874645
3.3613865 -2.7982144 17.381536
0.027379051 3.0704713 11.068697
4.7405252 -1.2473772 14.113261
-1.2355282 5 1.8363615
-2.7575288 -5 1.7323318
-3.3697031 -2.0868075 11.986572
1.071514 3.695806 11.826495
3.0521085 -8 2.3037534
0.86674047 4.1378193 12.336558
3.5670528 3.0962594 10
0.55002213 -8 1.6725564
-8 -3.4725456 5.3392844
-5.0446639 -8 3.1666451
-4.322691 -2.4241998 15.555816
-5 0.33917248 2.3671412
-5 -2.5027082 3.6729293
-7.4149885 2.8720407 10
6.8237572 1.6300836 10
-3.6645236 5 2.5387807
6.3910079 5.6791091 0
2.4381785 -2.1359291 18.781761
-5 1.8897544 7.0007977
-3.8135986 -8 0.65084279
8 1.0572784 8.2335987
5 1.7766261 3.4750481
-2.4314666 -6.4917421 0
-3.2760348 3.1187384 12.91259
7.8244758 -0.80657148 10
-2.07338 5 2.4499817
4.0644941 8 2.5562305
6.939465 -4.141448 0
-8 6.3146267 0.27026489
-0.053035051 -3.2719936 18.756306
-0.015116453 5 6.661222
8 1.9153709 3.6563666
0.42232448 5 7.3017769
0.73141313 8 1.3756871
-8 5.6348462 8.2165127
-4.5046 -2.9457035 8
-8 5.9521122 1.2566342
-2.8305135 8 2.5887852
-8 3.2231669 7.5353622
2.4261322 -4.7697792 10
3.0431924 -8 0.91886955
8 5.191885 1.2803465
-2.6804805 -8 0.078679614
8 6.1582422 6.4786201
-8 3.3107657 6.0049682
-0.11051011 -2.7587733 10.85389
4.7224169 0.62728018 13.559948
3.0796282 8 6.9190431
3.4025505 6.760509 10
-7.6976857 -8 6.5260577
-5.9976449 -5.2751155 10
-8 7.253212 2.0184243
-3.1681108 -8 4.1275678
4.5609622 -8 8.2758265
-4.7348132 0.37491778 16.5063
8 -0.37850595 6.921442
-0.78669864 2.5418804 8
-6.0453825 8 5.2893376
6.4429665 8 9.6318531
-0.96804202 4.7985396 8
1.4080738 -4.6942177 14.144815
-8 -1.0289632 6.6770988
-4.3091316 -2.4921634 14.846668
-1.0327351 -8 8.8466425
4.5324144 -0.12436211 10
-8 -1.2897375 4.9403391
3.7006526 -5 4.4642491
-8 -3.5493684 0.49840692
7.9906464 6.7782383 0
4.0335507 -8 7.3088303
-3.1635227 -8 9.4515505
3.764647 5 6.8542237
-6.6720848 8 7.6714897
-3.7826717 5.1057377 10
4.1048169 5 2.7594981
-2.3161135 2.8030581 8
-1.0570449 -3.9802763 17.812346
4.3014526 -8 7.2825704
-0.16714931 -8 6.3969731
-5.6749301 -4.8552217 10
8 5.1711674 0.70837545
1.9564228 -8 6.5301089
-2.657583 2.0892866 10
-8 -4.8038883 2.2774739
8 -7.0672097 1.7297046
-1.6255546 4.6693277 15.597946
-2.8455944 7.1762195 10
-1.9322692 3.7177367 12.295203
0.21359447 -8 4.3348131
7.7618351 8 6.9328732
8 0.96078658 7.8882985
-5 -3.655936 0.95425034
2.1265402 -5 7.9547491
8 -7.8104172 6.4368529
-5.5148144 -7.0731702 0
8 3.3696413 4.0197434
4.4752035 -2.184902 14.785858
-8 5.5114317 6.3572989
-3.1502292 -8 8.6622
1.6941775 -5 7.3233624
5 -2.244518 4.2995982
-0.70718145 -6.5482888 0
-5 4.9171419 1.6305107
8 -4.0297322 5.0231333
-5 -4.2175713 7.4053121
-5.8328567 -2.6174586 0
0.84484673 -0.89511073 8
-0.8759141 -8 0.45763716
3.330462 -2.0179865 11.895859
8 -2.8801494 9.1153374
4.761385 -3.6414635 10
0.76246262 -5 3.4378524
-2.3772621 5 7.6737213
0.047216773 3.0094862 8
-7.4891691 3.5868018 10
-1.4090769 8 2.7469926
-0.0016399696 4.8958044 14.092805
5.8667932 -1.6404681 10
7.8531079 -8 7.3714523
0.097395018 -4.6476898 16.786392
8 -7.3363371 3.7318137
-8 4.8623085 1.2394809
1.4709957 5 7.4740772
8 6.6678162 7.3583212
-4.5603123 1.4032974 13.572794
-8 -3.1638432 7.0063648
2.0399208 -2.7028332 11.345638
-8 2.810816 4.4948168
8 -6.1212144 2.6574681
8 -4.8944187 4.6879754
2.6291857 5 0.75885659
-3.8676786 3.1272688 15.241581
2.069478 2.0185616 10
6.9172187 -2.1105523 0
-6.389904 3.2868361 10
5.6514049 3.267988 10
-5 -2.9134998 5.0058198
8 -6.9594383 6.4882827
-6.3933649 -8 8.4817448
-6.8144217 1.2226379 10
8 -6.9689584 9.4000378
-3.0189888 0.85913169 10
7.5831256 -8 0.19913246
2.7123494 0.83745718 19.097591
3.256321 -1.6020459 10
4.9786606 0.74809057 8
-2.4658279 -8 7.9339175
5 3.7967877 3.6637194
3.6274519 -1.5647032 18.028143
-1.0119141 5 1.7381228
-6.0550027 -8 4.8630185
-2.1926394 -5 5.4980516
0.88258243 8 2.158705
-4.241653 -2.5744908 15.457072
4.0717249 -0.1254548 17.875252
-8 6.0216141 7.1681395
6.436305 1.9751022 0
-8 4.3068228 5.188036
1.1068236 4.9999995 5.2136412
7.3956995 2.2993214 10
-4.8260612 -0.49326086 8
5 -0.11059494 7.9642797
2.9606855 -5.2131381 10
-1.457664 -1.2921672 19.585411
-2.9973078 2.3177872 18.237726
1.887154 5 0.19146875
-5 2.5460157 6.6961799
-8 -3.7463121 7.684514
2.0860066 3.7963166 17.452686
2.6933808 3.4185987 12.573572
8 -5.0079751 4.7041879
8 -6.1383543 6.547318
-8 3.2394812 3.9376094
1.0480125 -8 1.2226067
-5 -1.0999248 4.3707037
1.2825572 -2.7433074 18.97599
-1.7706307 4.5983791 15.689947
8 -6.2935505 2.9867353
-2.4844775 -4.3034391 15.231494
5 -0.02135396 4.205471
-5 0.15438533 0.61399603
4.5491381 1.2582707 16.578272
-0.12566519 -8 6.555542
5 -0.8027904 2.6462994
6.3422041 -4.6603909 0
5.1797962 8 7.564887
3.7521658 8 0.79657376
2.8412457 -1.9252608 18.611614
0.80088186 -1.3710444 8
-6.8101397 7.691926 0
8 4.9302635 4.0661483
-8 2.6143336 7.3637395
1.1536492 2.2631147 19.288557
-0.98059106 -8 0.66614437
4.1147366 -5 0.47203064
-6.5414476 -2.4252915 0
3.9613357 -8 7.4788685
1.2814112 -6.8657122 0
-2.3718777 8 8.4162979
-2.3952482 5 1.6628921
-2.3649817 8 6.3313627
0.36121866 1.3120471 19.796179
4.5700645 -1.8577549 14.356809
2.1900549 -8 6.7298212
-8 7.6722641 3.159795
5.9393334 -8 6.0508022
-3.3431604 1.9503641 10
-6.046103 5.0964923 10
5 2.0087736 5.6816854
5.797576 3.3789747 0
0.70865285 3.9874737 10
-2.5445213 -5 4.3550358
0.40531409 -5 3.0855174
-7.2038937 -2.3830194 10
4.2770562 8 2.5909643
-4.1332574 0.25105166 10
0.774993 6.4149523 0
7.1061087 1.5186927 10
-7.4821377 8 1.9707805
-1.419663 2.321012 8
-5.8366027 4.6966729 0
2.2467737 8 4.5445261
5 -4.6456046 7.4864354
0.65272975 5.6688051 0
-2.7918057 -5 2.4000587
4.5129967 -2.8822188 8
1.2522277 0.34687576 19.811085
-4.2532339 8 9.7690964
-8 6.534121 8.8474007
4.3391781 -1.8446703 10
-5 0.24422622 3.4684629
5 -3.2140725 4.9655414
-1.5055132 8 5.0497394
-6.4160576 0.4195357 0
1.912757 1.7587901 8
-8 2.0051289 6.7438626
-0.72329855 -1.000669 19.827332
8 3.5451016 9.126811
8 3.2354131 8.715107
5.7264032 -1.3182735 0
1.8067192 4.9999995 5.8243265
-0.039296627 -5 6.8063745
-4.4270549 0.61744499 17.207758
-8 -4.6853662 2.3761477
5.5078316 -3.7465706 0
8 -2.8780365 2.5754185
4.9557109 -5.3306432 0
-0.4520241 5 1.5073754
-5 -3.6818416 5.5658951
0.71580982 7.2653174 0
2.836365 5.3596821 10
-7.3763585 -7.0957341 10
4.5061131 -2.6256795 8
-8 4.7654138 9.890234
-0.28176606 4.9693317 15.023229
-7.3538055 -7.6612644 10
-8 1.232379 6.4724388
-4.3086948 -8 4.0454512
-0.46170437 2.2237608 19.443844
7.3587275 8 4.6844845
-2.133451 -5 4.5017753
8 6.3129721 3.4254105
2.4439344 -5 0.86456776
-6.7313414 8 3.2304387
6.7078676 -4.176177 10
-8 7.0186672 1.5186632
-1.4829707 -1.9445612 8
-3.0216432 -3.7507207 13.740889
-7.7641459 1.1551275 10
4.2874556 0.63439566 12.550154
-0.37984917 4.7453299 13.542974
-3.2239506 1.1682694 10
-1.2836419 -5 5.3986998
0.9547714 2.0639982 8
3.078634 -0.78369182 10
-3.5128143 4.7428761 8
4.7915802 -5 7.3849707
-2.4614801 -2.4126313 11.404912
-8 -2.9724965 4.1183748
3.0161865 -8 9.9428692
8 -0.10849264 5.5353642
-2.3913612 -5.3337035 0
-1.7468696 -8 3.0116179
-5 3.8295784 4.1830473
0.46294808 0.48671305 8
-8 -0.49629709 9.7131796
5.8146696 -1.2559664 10
2.4956527 6.2047505 0
-8 2.790777 3.6899238
-0.85096955 0.77197468 19.849073
4.9469757 -8 2.8282948
-5 -0.35328275 1.4468946
2.524478 -1.4086206 10.944384
8 -6.1774178 4.6523023
-8 -0.038756847 1.0353159
1.3558478 7.7789316 0
-2.7975473 -0.61598265 8
-2.6191967 -5.095644 0
4.2183619 -2.6375637 15.222939
4.0425816 8 0.52045882
0.52018052 4.2005806 12.360435
0.60805023 -4.3372073 10
2.147521 3.2617791 11.904643
4.1400633 7.3763647 10
2.5643804 8 9.1467295
8 -5.9713054 3.5536518
5 3.3246257 5.9739118
-7.9586692 6.6716104 0
8 6.5043221 8.7086458
2.3995216 -8 0.57320398
5.2310219 8 9.7527981
4.8351402 0.45716724 16.0842
-8 7.997983 3.6178474
1.0093145 0.48180604 8
-6.0113096 8 3.0223308
0.51442885 -8 1.1820941
5.9713354 -7.3426542 10
-8 -4.1125808 6.6603088
4.1592612 0.75534552 17.646807
0.76775348 -1.6564156 19.638987
5 -2.3855798 3.3771527
8 -1.7261152 8.1486864
-8 -0.27143955 5.9614353
-8 -6.4047661 5.8174391
-7.171505 -8 8.3852291
3.9267411 8 0.96312523
-4.6353979 -8 3.074791
8 -1.8430767 2.9233394
3.0889912 -0.5847131 18.872927
-8 4.5023432 9.6091824
-6.2588439 2.639189 0
-4.546453 1.8901145 14.281075
-6.1408353 6.411272 0
-6.9794865 -0.19890523 10
7.1257133 7.0496759 0
-6.8991423 8 8.3915281
3.5984106 -5 7.9123297
2.2669024 1.7590296 8
4.206398 5 4.4330177
2.4354019 7.9009156 0
-4.3946552 -1.9146457 10
8 4.2196045 9.4630537
5.7332439 5.5464077 10
-3.76615 -8 6.5310106
6.9070177 7.5142441 0
-6.2516632 6.4630136 0
-2.6471059 -0.1294806 10
-3.5549474 5.2058463 10
-3.750648 0.59934121 10
-7.2325263 4.6701121 0
3.3290753 6.5157924 0
-7.7776103 -8 1.8933488
7.4822054 -8 4.3792562
3.1428874 8 3.8716722
-3.8831766 -2.8091133 16.359402
-8 4.9159832 3.6399031
-8 3.072948 4.7291527
-8 1.4241397 5.0077782
8 -2.3931887 0.85601014
-1.6395292 -5.9195986 0
-3.1439409 3.3167212 17.015873
1.9554117 -8 0.34028885
-8 0.85709453 0.71794689
-8 -1.6259131 7.7490349
8 -3.9157372 5.2916422
-2.4631648 0.042091131 8
-5 2.556879 3.5943651
-3.520905 7.5718927 10
-2.5336196 5 2.5471745
-8 5.2062445 5.6816978
1.524816 -7.5704608 0
6.051055 -5.4353242 10
-2.1703081 7.1894503 10
-4.2933159 8 8.5285501
-0.43673334 -4.5345249 12.984539
4.687356 6.1719222 10
-2.9097543 -3.9830928 14.344387
7.10817 -8 9.8711586
-0.013086438 -3.9365318 10
7.6157222 -3.3819153 0
4.1373382 -5.7863755 10
-8 3.0400259 4.0166945
3.0258224 4.4367332 8
-6.1947961 -8 3.2789817
4.9569731 -3.3149192 8
0.6250782 8 5.2369509
4.3612785 6.6042442 10
5 3.3516121 4.3234291
1.6977525 5 3.3601518
1.5699451 -0.85515916 19.655668
8 -4.4424763 6.5653162
-0.32955861 -5 3.2596469
1.7652895 6.0113707 10
-5.0951085 0.74632251 10
2.9167612 2.7312739 17.971315
-4.6667228 5 7.1977911
4.85078 5 1.2559969
5.053154 6.5790796 0
-7.3744798 -8 6.7086239
-5 0.716681 3.4301662
0.66844088 4.4719844 17.100168
-3.3484316 -3.2185912 10
-8 6.0229907 8.8212891
5 -3.7420325 1.0328716
-7.7140675 7.7416477 0
6.978549 -4.6561069 10
-5.9118032 -8 7.228055
-4.2698188 -5.4745989 10
-5 -1.2907356 4.995307
8 -3.6785161 4.1100988
8 -5.4893117 4.2523479
-4.3932123 0.9083277 17.169355
8 -0.060588539 5.9321694
8 -0.75965071 7.1610994
-8 -6.8270755 1.1781811
-8 3.50719 1.8989165
2.362751 3.1489654 11.948603
-2.3355589 -5 1.5521655
4.7552538 4.5684838 10
-4.8655868 -8 9.2945728
6.9959917 0.19392896 0
5 -0.5570395 4.6808658
-3.4620733 5.5171289 0
-8 1.4418341 2.8244076
-5 -1.905653 2.1317172
-2.0278223 -6.5087347 10
-1.3735681 -5 3.082515
0.94926381 -2.3077958 10.513239
8 -0.15083671 4.7637458
8 0.59817433 8.937705
3.7809346 8 0.50149202
-2.77595 -5 5.6358957
5 -3.5041718 1.0441729
8 -7.9319029 6.8522382
3.6000013 -1.1421661 8
-5.3863549 3.3287528 0
-8 -1.0315424 8.1430416
-8 -3.2609534 5.0242448
-3.5274763 5 6.9370279
3.6554406 5 3.3250864
8 -6.1193008 3.1596959
-0.028498989 -2.0189126 19.554543
-7.230309 7.6324787 0
-8 7.1499085 7.2289815
-8 3.9562466 5.1577201
8 -7.6918879 9.9054804
5 3.4457662 1.8665471
3.6816192 6.7770276 10
1.8365557 -4.1355042 17.093458
-0.21925282 -5 1.4840813
-2.7440033 3.4763782 12.727689
-8 -4.987215 3.1895974
4.1502085 -2.6513472 14.296227
-5 -3.3510747 1.8465147
8 2.1164784 8.4681492
3.7440085 6.048068 10
-1.47333 -4.6396828 13.906516
2.0413291 7.9920759 10
-4.8137908 -0.71506393 13.877272
-2.7374439 -8 7.9299402
4.6751184 -0.19824991 13.296512
-8 3.3814111 7.6428528
-1.2160583 -5 5.5653028
-7.9236131 5.9358659 10
8 4.2058039 5.4850111
-2.1666446 2.3395915 10
-3.0361638 -8 1.6000285
4.8051329 -4.5188642 8
3.8713169 -4.2891293 8
-3.4175434 -3.6130912 14.693338
7.6074028 5.1602015 0
-2.9041109 4.1223464 10
-1.3573793 -2.449743 10
3.3730724 5 7.2089086
3.3503809 -2.050586 18.057674
8 -2.054872 5.8000708
7.5844321 3.5594904 0
-7.2851772 -4.5581646 10
-4.9695945 -7.7237911 10
-6.6466045 -8 7.7402782
5 -3.1068556 0.8295272
2.356427 1.4862298 19.128981
5.4383612 7.3884048 0
8 2.1806307 5.2367415
-2.2341452 1.0842061 10.325844
-5.9518933 -6.2865791 10
5 -2.0688286 2.2662704
-3.4295516 2.3355627 12.241242
-8 5.9310026 9.4220362
-2.5334997 -3.8240125 8
0.37531507 -3.0989976 11.106543
8 4.2512712 0.081483044
-8 6.7078266 1.5583813
-8 -3.3920269 0.48296943
-0.44404593 4.0154543 12.08828
1.4543676 0.36396885 8
-3.1900699 5 2.902725
6.1989951 -7.069849 10
8 -2.9983404 0.073315375
-7.0650144 -4.2110939 0
-3.6777258 -3.6138382 8
8 -2.7531905 6.0438857
8 -1.962364 6.3629036
-3.7218986 7.632381 10
-7.0492086 -1.3510065 10
-5 -0.49845648 2.6631355
4.0686235 -2.4490538 13.507298
-4.7535944 1.3902032 10
-5.0207186 -4.4485774 0
1.0832539 -5.0760312 0
8 1.5925455 0.16058069
-7.3192835 8 5.6942291
1.2060291 -2.4126158 10.81118
-1.2471764 8 1.5666038
-4.6978273 -5.0142922 0
5 1.663909 6.2926612
-2.1828203 8 8.6431122
2.6804631 2.9210594 10
-8 3.9628794 0.87902796
2.4994273 -2.5221772 8
-8 3.2530398 0.088732615
-8 7.3917432 6.6286922
2.1277778 -1.2836249 10.277931
5 -2.1952515 6.7059126
1.7989264 8 6.6783514
8 6.8029661 7.0467763
-8 -6.702877 4.8632545
-4.8069983 -1.2910616 15.033192
-7.7300692 -8 6.7464399
-2.4819164 8 6.9694638
-8 -1.2846643 6.6538739
6.6431317 -8 6.102375
-8 5.6730933 1.2607498
4.0860581 7.56215 0
-5 -1.2688279 5.9619031
1.6427805 5 6.4272594
8 5.6477842 3.4945714
5 3.7116001 6.1786942
8 -4.0381203 3.8880708
8 -2.0783815 2.6555057
-8 -6.8363037 4.5386429
5 3.0333028 4.4112601
-2.0882578 -2.6765282 18.64308
-2.8098583 -5.4091597 10
1.8339229 -7.2457414 0
-1.7424465 5 3.5482376
-1.2864214 1.8301646 19.461279
2.0012345 8 3.6413765
2.4964149 -8 9.7504539
2.9754696 6.1045208 0
-4.1546378 -8 7.2862363
0.68132186 8 5.304697
-3.2100792 -3.7865586 8
5 0.25048363 4.43961
3.1037071 1.7647657 10
-1.3228797 0.38729399 19.791269
-8 -2.7101872 6.6659551
-8 4.7816653 8.8732595
-3.3534367 -5 0.14724874
1.5424161 -0.57148242 8
4.1547623 -7.657896 0
6.8374305 -8 9.0320187
-8 -6.3498178 9.6845284
-6.5941257 1.2867047 0
8 -5.5981421 2.4234886
-0.5738368 -8 2.5635757
4.071456 1.8748342 17.18161
-7.7598238 -4.8982449 0
-2.0655181 2.4515076 10
-1.0032361 -8 6.244101
7.7382274 -6.4196162 0
-5.417963 8 0.27137518
-7.889277 5.5284081 0
8 2.657259 2.9337993
3.585927 2.0814178 17.778667
2.7880619 -8 0.39392653
-4.0991688 5 1.7527857
-2.1176081 3.80866 12.594282
-3.2674413 3.7145844 15.588763
-4.6516876 -5 1.4255693
1.4545279 -4.8814783 8
3.4325612 3.6130977 14.830858
1.0426058 5 0.12462875
8 -2.6100116 5.0669718
2.8972936 -0.28719103 8
-2.5133042 -5.8302407 10
-3.3009872 -8 7.0694647
4.7277384 5 4.821454
-8 -2.1563838 4.4933119
-4.6273022 1.7721212 15.540449
4.2468977 2.7583177 8
-4.2824187 -2.8915248 8
2.8392701 -1.1639709 11.060938
-1.6945467 -4.2329917 12.977708
6.1867857 -7.4678359 10
-0.28071213 -5 4.2917442
6.6462483 -0.44912267 10
0.43634582 -4.8642278 15.974559
1.6065221 1.142331 19.5755
4.7188001 -5 5.7349176
3.7929494 8 9.8800144
8 -5.7813253 9.3929949
7.056447 7.3690529 0
8 -4.8218331 3.046052
6.981164 8 7.4327087
5 -0.48048499 3.2465382
4.4899716 1.9049906 13.92688
4.4887819 7.720459 0
7.259757 0.59148431 0
5 -3.0147789 2.1162817
-2.2180467 -2.7150664 18.539604
-3.1607738 5 3.182092
4.1647725 6.244863 0
3.8249347 -5 4.5859957
3.9840958 -0.39787114 17.959932
7.3954692 -8 4.5272336
4.9419003 -5 5.5813699
-1.3365949 -2.1005962 10.16671
5 3.3936274 1.8892499
-8 -0.50945961 8.7636366
2.7948637 7.6801791 0
0.87793303 -0.87514627 8
8 6.3729811 8.3138456
1.7324485 1.007948 8
0.61924052 -6.8124232 10
-5 1.6199832 7.2597127
2.1426983 -5 7.889411
5 1.0193524 6.5771241
5.7912397 2.2723169 0
-3.4030316 3.5948782 14.492828
7.2681174 -7.1937237 10
1.1853783 -5.748775 0
4.5440331 5 4.7270083
-1.3007503 -5 5.6052022
4.1435008 -1.1797848 12.494133
-0.35613155 8 6.2651949
-2.7918673 -4.5866446 10
3.7114956 1.2093697 10
5 -3.538862 1.604689
-3.5473659 -0.93229258 10
1.5172405 -5 4.3490057
8 0.47666609 7.177249
-1.3693408 -3.1420317 18.615843
4.2630401 1.805182 16.840805
-5.5392423 3.7710161 0
2.1861644 -6.2645121 10
8 -3.9224205 5.262537
-1.4196278 4.6724038 13.97533
0.97297633 4.0834818 8
-6.0949926 8 1.4563857
-1.1232092 7.1524224 10
4.8854818 -3.990665 8
2.2525845 -5 0.83528519
5 -1.7356243 4.0749531
-3.881901 -8 3.4635794
-6.1946087 0.55682516 10
-4.6999159 -5 0.6763556
-8 5.0477319 7.430048
-8 -2.5075524 2.49997
-1.1235971 -8 4.5323753
6.0603032 0.19837976 10
1.5036836 -6.8984723 0
6.8072662 8 6.9956326
-3.4605522 -5 0.8504734
-8 -6.6438513 0.65369123
-6.762939 1.8376288 10
2.5786591 1.87388 11.159229
-4.5003862 1.6963601 16.317816
-4.8744116 -5 0.71638083
-2.2823868 3.9252834 8
0.85459518 -3.3853321 8
6.0490613 7.216434 0
3.7915068 1.7632978 17.716253
5.1945829 -8 8.7034445
7.7996926 -8 8.7637033
-4.6465721 -8 2.8220918
-5 -3.3571115 0.43362379
-8 -4.4181972 0.98874301
-7.6786242 -2.1377983 10
5.6960564 8 3.7893848
1.4328396 -5 3.0336971
-6.7846832 8 4.0378103
8 6.025136 4.1217375
-0.58791703 0.79365033 19.889587
3.1938264 3.2295642 12.940531
3.7747946 -2.136152 17.44558
-6.6078115 -8 0.073539205
-4.094039 -1.492866 10
1.6960695 8 6.8302188
-1.9386892 6.7484784 0
5 -1.1507556 0.10649436
-4.7167788 0.98219419 10
3.5905941 -5 6.0850616
0.36701816 -8 4.4066715
0.61073947 8 1.755954
-1.0554023 8 2.712034
5.903338 0.91463542 0
-1.5986199 -6.4315376 0
6.9207649 0.54666281 10
-6.3251619 8 2.5443516
2.1904497 -0.1526227 8
-3.6707003 -2.6543906 8
-4.3904886 5 5.3777575
-1.0538809 8 2.4707019
-4.6519485 -1.7660332 15.154049
0.25832748 -7.9412737 0
6.1334276 -2.9390564 10
4.8226833 -0.77525967 15.954584
-0.37878013 8 3.7868996
3.8837872 -1.8414299 8
3.8002486 -8 8.7954693
-5.0983386 5.5266771 0
3.2626984 8 2.957633
0.37119955 2.9715688 10
3.5799866 -4.1160054 8
-6.7400751 -3.2424355 0
-2.0324907 8 9.344347
-0.16722417 -0.52363658 8
8 4.0878382 3.4735551
5.0186815 8 2.5165296
-8 -5.2378488 0.19126329
-6.1956363 -8 4.4601851
5.1593251 -8 5.5276494
8 -6.6001682 2.0596077
8 6.0617304 7.3420625
-2.1866443 -6.6778669 0
-5 2.6663227 4.3505583
8 4.1734324 4.858058
8 -6.9687662 7.5647831
-8 5.5137949 5.1816473
-6.1881008 -0.28365731 10
-5.0211749 -0.45301843 10
-8 -4.9673696 8.6892653
-4.9490318 3.3728538 10
-6.7499733 8 7.8577056
3.4883611 5.145587 10
-3.0067496 5.1170359 10
4.1647482 -5 2.9798656
-6.7625771 -6.0141468 10
5.145978 -4.8981071 0
3.0657787 -5.4663486 10
-0.84646142 5 1.4745765
3.6752701 -6.8329535 0
-2.9911819 -5 0.24259281
1.0959711 -5 3.3658557
-7.913887 -3.6666794 0
-6.3886032 8 8.6957884
3.9192781 -1.3742832 12.249386
-8 -5.0099382 8.6145077
-7.4106035 1.0291703 10
2.0841103 -1.4922698 8
7.2273312 -8 4.5392399
4.7207932 0.062636323 16.591217
-1.3386335 8 8.1361685
2.6185699 -0.085628629 10
-1.6545756 -4.4705439 13.576113
4.7632403 -0.45985186 16.380539
5 2.2136788 1.0397991
-1.3398055 -0.25465107 8
-7.1562057 -8 3.0439601
3.7009585 8 8.1960001
2.5801847 -1.09548 10.878262
-2.3783803 -3.0814791 8
0.85942185 5 2.128
-7.0053387 -0.88700962 0
1.8408759 -5.7383347 0
-8 5.8205862 5.1633992
2.1327746 8 8.2253313
5.9803991 -6.2103992 10
0.17046118 -3.1577291 18.852531
-3.1229694 -5 4.5925212
2.4719734 -2.5040116 8
8 0.74093962 8.0270996
3.8527017 2.9110684 13.7823
5.3082824 -2.0526056 0
-8 -5.350862 3.6822045
-8 -2.5755205 3.8725133
4.8638611 0.10196814 16.083378
-6.3858051 8 1.9242806
-3.0666964 -5 3.9215198
-8 -7.7481747 5.6548753
8 -2.716234 7.668251
-6.1103611 7.275435 10
-0.062731206 1.3200555 8
-1.8097799 -8 4.4506526
-8 2.111254 1.3358488
-2.1186514 7.306366 0
1.8458092 8 6.0419474
-3.5472069 8 8.4136105
0.1808095 5.7555246 0
-1.1043022 -2.4772758 19.177692
-0.03159301 -1.6513985 19.7145
-5.5567775 -5.63591 0
8 -7.3753858 9.837882
-8 7.3995829 3.5606947
-2.2050292 -8 4.2927871
-6.6923766 0.63549817 0
0.091262817 -3.6872416 18.364904
-3.8699126 3.1301513 14.984917
8 -3.0162427 3.9035387
-8 2.8759043 5.0602603
-0.87194043 5 5.9050322
-1.6130012 -3.3839834 11.70555
-3.1081815 -0.99926317 18.761007
8 4.3388815 4.9899883
-5.7617092 8 8.5493355
8 -4.923142 8.0352402
-8 0.28197086 5.069561
-2.8921869 -5 0.94277954
-3.0954585 -2.4477985 18.035074
3.8647478 -8 3.4842227
1.5070465 5 0.084317453
-7.4324455 -8 9.7917061
-3.6722572 -5 4.8373423
-1.0839162 -8 5.0195713
-2.6093898 -1.1306047 19.094341
4.8611069 -5 4.2704945
7.9323864 -8 4.8869691
-2.4226971 -5 0.4524498
8 5.1893063 1.1916552
-5.4580908 -2.8220553 10
5 -0.24877894 2.1164205
-3.5314903 -5 5.2775283
2.7726417 -5 2.9549437
-3.6659217 -3.5323887 10
5.4579182 8 3.9278908
7.7269783 6.8726988 10
4.0791721 6.4915953 10
-4.1577468 -3.6035922 10
-8 1.4532433 1.6840279
3.3442292 -8 7.8664231
5 2.9656091 4.5949154
7.3535171 8 8.9186773
2.0225394 4.2657633 16.582361
-6.3192525 -4.3762021 10
-3.8465328 1.8468375 17.568428
-5.1175938 -8 6.1868162
-5 1.714535 1.7019248
-1.5914195 8 0.69752276
-4.7916121 -4.2663703 8
4.4944177 -7.3937769 10
-4.9634075 8 1.2570709
-8 7.6938319 2.9150143
5.2418327 8 9.3029823
-2.9859271 -8 5.6225686
-4.3706517 7.1547875 0
1.6032181 -8 6.0077591
3.0703959 3.9133081 14.675789
2.1352558 5 2.4229128
-0.95913887 8 6.5496416
2.4558921 8 2.4413733
2.4860415 2.853806 8
-2.3115766 1.4232686 10.820878
0.87315273 -4.1319661 17.639936
-7.3236718 0.15824437 0
3.5966504 -1.9168283 17.87867
-3.7070966 7.7676835 0
5.0275426 7.3203382 0
0.11538863 -8 3.6533864
8 -3.0674303 9.6103897
1.9482719 -1.2418772 8
1.4124122 -6.7775073 0
3.1858137 -5 3.4216175
-1.1058102 -3.5319297 8
7.0769334 8 2.4406838
1.5867896 1.5343654 8
4.0042486 -1.2626028 17.697472
6.8494482 -8 5.5741158
-1.6080863 8 2.9406023
-4.6280947 0.11736163 16.84343
-3.3272429 -1.6169766 18.347395
1.7280343 4.5499134 10
-5 -4.1553373 4.9744081
-2.8732162 3.7240095 8
8 2.0167332 9.6455612
2.5223415 -5 2.787662
3.4283791 -5 3.7343497
-3.0991879 5 4.9179206
0.38012904 4.6363988 13.214392
2.8749862 5 4.4617534
5 0.9222883 4.9044442
-5.7926197 -8 7.8585172
-8 -0.31895828 4.9620252
-5.5785413 4.6434822 10
0.45785978 -5 1.0233035
-5 1.3680373 7.7215533
-2.5821276 -3.1373966 8
-3.7618294 -6.0331602 10
0.86399156 2.4144413 8
-6.9191556 -8 6.7042704
-2.535573 -7.1404209 0
-4.3955431 5 4.5041156
2.4645321 -0.30344898 10.26045
8 -3.7223532 4.5897484
4.4932013 -5 3.5574818
-0.32067674 -8 9.5377769
-0.38710046 -8 4.198853
5.4824309 8 5.9057622
-1.6897044 4.639267 8
4.3409562 -4.8517041 10
-3.9718392 -8 8.5042629
-5.8994474 0.95573735 0
6.1954169 8 7.1410751
7.2860746 6.9020157 0
-1.586153 -4.3123055 16.917694
-0.76768076 4.2940764 12.601139
-3.9129496 8 3.7258458
-1.2561216 4.8138566 14.718184
-4.2707562 5.1756806 10
-7.776144 4.1796627 0
-2.4205031 2.6755409 8
-3.1634092 -5 7.7665567
5 -4.4681735 7.9396777
-8 -0.69232571 6.651288
0.55122709 -8 0.14601612
5.9947834 -2.8940177 0
-1.7627482 5 0.16774885
1.2826204 4.8092623 15.034752
-0.99065232 4.6987309 10
5 4.1939406 3.0709541
-1.8278041 -5.0302296 0
-3.4723661 2.6776757 12.640649
4.3087325 2.3731477 15.74791
1.1112393 4.7015347 16.220482
-5 3.1963539 3.769594
8 -5.0504899 7.8772497
-8 7.2516265 9.0656796
0.71040452 1.6674763 8
3.406491 -3.111793 16.888765
8 5.8116684 2.1513069
5.5041738 8 5.6467347
7.3003511 8 6.7159433
-8 1.4686646 9.9521151
3.6838303 5 6.6163526
-0.27261803 3.4695966 18.565615
7.9362144 2.5699477 10
1.5422878 -5 7.654952
-5 -2.9221959 5.6014037
4.6050978 -2.54685 8
2.7104559 -8 3.4441538
-1.5908082 8 1.175487
5 4.2256889 2.9098964
4.8524981 0.88282871 14.32736
6.4358411 -7.1292481 0
8 -4.7542777 3.2428594
-7.8667116 8 3.5545645
1.8972325 8 1.8777001
1.783113 6.3502955 10
-3.7739921 1.2660233 12.010641
-0.78322268 -5 3.066112
-4.1309662 -8 8.5276566
-0.086856484 -3.9273062 18.060719
-5 0.20295334 3.9689434
-5.4216204 8 9.553297
-8 -1.9820633 5.2338152
-1.0789242 8 1.9174278
-4.9951639 -5 2.8965678
-5.3635259 -8 4.6909213
5 4.7490382 2.9292312
1.8032808 -8 8.9033089
7.3941603 -8 9.3222446
-2.8502667 3.6880853 16.745508
-1.1928368 -5 6.7224011
5 -1.0733169 3.9053001
-1.6930759 -5 0.56036949
1.1244662 8 7.3056545
-8 -2.4973643 9.2441759
-2.7039359 -6.7709389 0
-1.6720481 -8 2.2797372
-8 0.80246001 4.8507242
0.66777581 8 0.035849214
-6.5595427 8 2.9808803
-3.4946969 3.0926299 16.726505
0.72497678 -2.3749428 10.545902
-8 -3.2762449 2.3848505
-2.0739033 5 4.1615095
5.2217674 -8 4.2093272
8 6.2947111 2.5558636
-6.7921438 -8 0.19740452
-1.1475612 4.3822622 17.094017
1.1891797 8 4.9684258
-3.3727372 -2.111968 12.00879
-8 -0.98534656 1.2836534
-5 -3.9433391 5.9558372
-8 4.4686551 0.96062231
-2.6363435 1.668139 10
5 4.1940098 0.57607549
-8 4.949295 5.0410028
-5.4190311 -0.52147818 10
0.26956463 -6.3915548 10
-2.7525215 -8 1.8208516
2.2547245 -0.76111245 8
-1.6237946 -5 2.0576243
3.4766312 2.7825012 12.770275
-1.1436642 -2.4435854 10
8 2.2552772 9.385313
1.445286 -8 0.47864941
-8 -5.1799135 4.6617384
-4.6616478 5 5.7208376
-6.171751 8 4.2012882
-4.0284848 -2.6327095 16.329197
5 0.64942926 2.9986312
6.2197809 -8 6.1644306
-8 1.6680169 2.0590994
2.7971959 -1.5473251 8
-8 1.9774368 0.20056918
-1.0820829 3.6239567 8
-3.776825 -2.8259313 13.417196
5.3100395 6.2224522 10
-5.4337287 -8 7.0702477
8 2.4516754 4.4680161
-1.3255004 -2.1088555 10.418917
5.4199772 3.4436052 10
4.0423269 8 4.6076064
5 0.16026759 4.1483693
-4.8288851 -3.6612885 10
-6.6029015 1.9149673 10
8 -3.8678231 9.4889965
-8 7.4731188 5.3023257
-8 1.7356014 3.0939224
0.47813058 4.1697254 17.703827
4.359776 7.9802384 0
-8 -4.0180569 8.9469233
-5.3394313 -8 3.8576257
-5 4.1618137 6.8114085
2.0478163 -5 5.9741087
-0.19437264 4.7922821 13.674019
-7.5438204 8 5.0479045
-1.557693 3.6020331 10
-7.3396044 -8 0.58854115
-5 3.9484949 3.0563734
6.5932112 -5.8664141 0
6.7246103 -4.1026487 0
-4.0603542 5 5.5172882
4.8279257 8 7.1804419
-5.0941625 -8 8.6604767
5.7419305 8 1.9723159
5 -4.7521358 1.4597508
5.3949566 3.3789887 10
-8 -1.646699 0.68763292
-1.5289881 2.2305477 10
-5 -3.6244934 2.0572009
8 -4.6176329 1.0900565
0.64791828 -3.0284779 10
7.5531969 -8 3.6664701
3.5046668 -3.4345784 15.82979
-5 3.0839465 4.5416813
-3.4954317 -1.8383048 18.029617
2.565145 -2.2401924 11.365812
-8 -1.3547268 1.8025745
3.4096398 -8 6.5969534
-8 6.3318028 6.1434369
6.27459 6.7474599 10
5 3.4381795 4.3889217
5 4.1695032 5.1504912
-1.1753782 5 3.8462307
1.5477847 1.9535234 10.05662
-8 -5.1500278 7.8794117
8 1.2463644 8.5457344
3.5498433 8 2.7580667
8 -4.448247 4.2946424
-2.7229242 -1.2200561 11.009484
-2.7080224 5 1.1077801
3.9130883 -5 2.152051
3.6485825 8 5.1709533
7.4820724 7.7680039 10
3.4742584 -7.1506634 0
-6.8743725 -3.3159037 10
8 -0.61900544 3.5819905
-4.3876081 5.3555431 10
5 4.7295227 3.0486274
-3.2017367 -4.2157316 8
0.36211085 5 7.0398388
-5 0.96605098 2.8402109
2.4007878 5 7.0333304
7.923624 8 9.7035446
0.055838823 -8 1.6175952
0.077280402 5 6.8059049
-8 4.9884782 3.0193651
-0.38661963 4.7358027 16.489956
5.3940144 -8 3.4230411
-8 2.9972415 1.7190073
8 -7.7842135 9.0902891
2.9669485 -1.3758534 8
-3.736407 -3.2709422 15.324253
-8 -3.6019349 8.6192074
-1.4285002 4.1315508 10
2.9709864 -0.82311362 8
-4.9104319 8 7.7103529
1.6580319 -0.15255797 8
-2.4587915 -8 7.3241496
7.2421713 -4.3955927 0
4.4486938 -1.2791413 16.837379
-1.5169156 -2.9365892 8
8 -5.5726137 1.236169
4.0444646 2.5721846 13.640579
-2.9785933 -8 5.5121603
-0.59040278 4.9343109 14.644798
-4.972867 8 7.7062473
5.9281278 -8 6.7783771
-6.5181599 8 7.2490549
-4.5659232 -0.37494269 16.952827
0.92513466 -5 6.0442195
-2.4756391 -7.4553432 0
-0.5667333 -2.597182 19.212748
0.52990997 -5 2.2992706
7.6905346 -4.6236625 10
3.3997147 -5 1.9084754
5 3.5353081 1.0423058
-4.0868783 -7.612412 0
-1.8388321 1.6715769 10.516127
-5.839715 1.5265138 10
8 -6.2579441 9.7707491
-4.7971258 -1.5471938 8
1.0891285 5.5983429 0
-8 -5.4257727 1.4178418
-5 -1.5488389 4.6007538
8 -2.2872424 4.4623494
3.2596672 -3.5126605 13.657965
0.72888678 -5 0.09346199
-6.5597773 -8 7.5452828
8 6.826416 2.1561329
-0.37821031 -8 6.3519344
0.90175438 -3.2630343 8
3.9602747 4.935256 8
-5 4.0834742 7.7771192
3.9802179 5 4.6275921
8 -5.1963272 9.9632406
-0.71352851 0.27981448 8
-3.6878881 4.0185571 10
4.4457388 5 5.8764377
-5 -1.6141394 5.0838051
-3.3217049 -3.3594151 13.43726
2.0692096 -8 1.7393754
-2.1181576 -2.59196 18.686153
4.4999757 0.15425202 12.870331
-1.1584511 -4.6169615 16.462984
2.8788419 -3.8154783 13.604996
3.0482497 3.4530559 16.898022
0.67249441 -6.2025104 0
1.9278283 -4.5551519 14.436411
-8 5.7379785 7.4957409
1.1719484 4.6225929 16.443377
-2.0813098 -5.3190546 10
-2.7489667 -0.27929115 8
-3.3437483 -6.0511513 0
-1.5529296 5.0000005 3.3357365
8 -6.1764998 7.7960138
5.2661686 8 9.0752325
1.8605042 -4.2246056 8
-8 -7.4074855 6.426384
1.4809159 -4.7517667 15.036301
-5 -1.9655802 3.1549587
0.94974232 5 6.4021273
7.2517686 -3.2501893 10
-3.4392681 1.2661349 18.389824
1.9386032 6.9628873 0
2.0029826 -5 3.1567812
3.5705814 -0.92246222 8
-7.5048933 -7.5483923 0
2.1343021 8 1.012122
-4.3426552 8 8.7144642
-4.4621406 -3.6069343 10
-3.3857899 5 1.2724446
-8 3.8937218 1.9779443
1.5265305 3.2086089 11.507366
-8 -0.72724676 2.2606728
-7.4944611 2.2716529 0
-3.8398895 1.5540917 12.234125
3.0639901 -5.8228431 0
-5.7009225 -7.9698186 0
-1.4278674 -3.8134127 12.137216
-3.1271019 -5 6.3722491
0.28541461 2.6643527 19.199183
5 1.0907787 0.24875048
-0.76817989 -8 4.8614054
-5 -1.5277514 3.8259621
-2.986053 3.5989761 13.275621
8 -6.1822867 3.354346
-2.9029155 -4.6453142 8
-1.4186747 -8 1.0220788
-8 1.38269 1.5080141
8 6.7918339 9.2794437
-6.2804255 -4.5020094 10
-8 1.0950115 7.6361065
-8 7.7360673 8.4002972
-8 -5.5597324 6.029067
-0.053501129 5 0.23830125
-0.12541202 -5 0.54334831
-4.5017805 1.8445195 13.92979
-5 -4.3081717 0.22389746
2.7977383 6.8454442 0
2.2087178 5 3.6002862
-4.1528435 -5 2.5128632
-8 5.4919829 7.8597198
-0.35589272 5 3.2672911
-4.1385307 5 0.54303467
3.3782701 1.5582578 8
-2.6233401 -4.1511769 15.81805
-6.5164671 6.9355187 0
-8 4.3051496 8.778656
-6.8149457 -8 4.9817834
8 7.9431953 3.8164697
-2.9103849 1.9986916 18.519115
3.6832066 -8 8.1996994
-8 -2.409235 0.0040120701
8 -1.906637 9.859478
8 -1.9905529 2.5028181
5 -4.9550166 2.0887148
1.6824261 3.2970681 18.341011
-2.3630054 5 0.42462358
-5 3.7608058 2.2595098
1.8531449 6.3611565 0
4.198226 -2.0141089 16.761688
-8 -2.9145682 6.2133675
-7.3558884 -8 6.2234759
6.216033 -8 9.7771921
0.28901124 -8 6.7484136
3.5237818 -3.4976115 15.38742
-2.9555597 3.805336 16.303843
3.4190369 -0.58731329 8
-2.2375758 -4.444191 15.028698
0.29757893 -8 4.0189648
-3.1770763 -6.9713511 10
6.0122452 -8 7.0625944
-5 -0.0084071755 0.56245899
8 -6.4317493 8.991375
0.98594499 -5 4.6135178
2.4080989 2.0540669 11.133119
2.5571728 2.2113605 10
-8 5.2070374 7.1605864
8 5.4915085 1.0358645
-4.1276727 5 7.1990094
-7.1644387 4.5751247 10
-8 -6.4673553 4.4067163
3.4333286 0.17560434 10
4.2562914 5 4.3118038
-2.9752445 -1.6877625 10
-3.4046023 -3.5175614 10
-2.7494433 3.9407971 10
-7.8771791 2.7358043 0
6.2244282 -2.2666957 10
3.8630238 8 3.6594224
-2.1951501 5.736022 10
-2.2308083 5 7.0187902
4.9244843 -0.056650296 8
-8 4.0619764 8.5853062
1.9299222 1.7024603 10
6.2559071 -5.0001955 0
-4.3423653 5 5.5933881
4.9451332 0.44791949 15.532349
2.7333267 5 0.84501278
7.1006875 8 3.3212714
-3.2480035 5 6.6199713
2.7012744 -4.2931232 10
-4.2503548 1.4036074 12.826315
1.7888699 -6.472373 0
3.5205352 -2.5226536 10
6.7089462 3.2028148 10
-8 6.8507924 9.0122099
0.22228234 4.9293447 15.696733
2.5294857 -4.5048237 8
1.355381 -5 0.33295155
4.4645214 5 6.1581235
8 7.4080248 4.9704266
-8 6.1205559 9.2804499
-5 -2.540746 3.6396952
-3.2698603 0.40882802 11.259047
2.0204213 -8 9.1052694
-5 4.2719183 2.5036221
8 6.2772646 0.64588135
-0.97593379 8 1.2250209
-5.9917173 0.36498165 10
0.92664838 -5 5.509234
3.6416669 5 5.5790105
0.63499618 -3.2551413 10
5.6103649 1.2323358 10
-0.26768804 -5 3.4799371
-0.72440243 -0.20326644 19.941956
4.8662152 -8 1.1950245
-4.7440815 8 5.3588924
5.5157809 -5.5702567 0
-8 -2.75105 5.3499422
-5 2.6319306 0.16357374
-4.5202045 1.5273007 16.420757
-8 -3.6492007 2.4781141
-8 -3.7808976 3.9724035
-6.4395285 8 9.8470163
4.2350478 -3.8644092 10
-8 -0.23882169 8.4629049
5 2.7284384 2.2933385
5.6820507 -8 5.7660599
-5.9219232 -1.4708216 10
0.17277396 -0.57810885 19.959078
5 2.2303207 2.5897329
-2.6131423 -8 3.7274826
-7.006464 5.1968966 0
-8 -7.1610255 7.5972385
-8 2.2338629 9.4302711
8 7.6995831 3.8705986
1.8167318 -8 4.2432661
-5.9934292 8 1.2293273
8 -3.8140218 1.5576289
-8 5.2909265 8.2106085
5.1627741 -2.4944851 0
-5 4.1501961 1.2125429
5 1.3066398 4.048368
-4.1114883 0.06855607 8
-8 5.320292 4.6844544
5 2.0800068 7.7719898
6.6443262 -8 1.527414
8 -6.762413 4.6369467
8 -5.0518141 2.3687053
4.5559301 -8 9.516016
1.0006971 -4.0861902 8
1.1983305 -4.5424433 13.342712
3.0916691 -4.5230732 8
-0.045135498 -4.9164362 10
-0.64970827 -8 2.4954412
4.5062952 2.0166457 14.384964
8 -0.95496976 7.9694109
4.4037733 1.1339071 17.069777
-8 7.508327 7.0984464
0.23864353 3.9935126 10
-5.3858328 8 3.5090008
2.3821955 -3.51789 10
-2.6199269 1.2277416 19.060669
4.0872808 2.8374174 15.149039
-7.2962928 -8 0.47154906
4.6852384 -1.3500853 16.005058
1.7282983 5.3752313 0
-6.0886087 -8 5.5751858
5.8518934 1.7391019 10
3.5687304 -8 7.5620041
-8 3.951993 7.3438711
2.757391 -6.3466082 10
-1.5830891 -7.98631 0
-7.052629 6.1893449 10
5 -1.1194786 0.42835456
-0.58875507 4.5657806 16.917921
1.8249922 -8 7.103622
3.1104717 -0.50997758 8
-3.0435362 5 7.4702039
6.7759871 -8 1.3464237
-4.9768872 -8 2.8509233
-1.285319 -4.535893 13.409545
-4.2676401 -6.655653 10
-1.7436776 -3.5848041 10
-5.6477041 -8 0.37470692
-8 7.9233222 7.6010895
0.63713348 5 3.5134184
-4.4600205 1.7331347 16.39677
7.6756277 8 2.7810292
7.080471 -8 7.3342962
4.313766 7.5937619 0
2.1194162 2.5078545 18.744638
-7.3927279 8 3.0940561
5.6630907 -8 2.7102208
0.85931337 -3.3247137 11.392557
-2.1903017 -1.452467 19.232224
2.7573068 -3.9961355 16.13686
3.0361061 -3.3905072 10
0.098649025 5.3335586 0
6.7367449 -1.1068034 0
8 -5.6170077 2.514174
5 1.5127337 1.0543381
6.6755905 -5.9437723 10
5.8432994 -5.5337901 0
0.46309537 -3.1418674 18.844526
3.6782303 -0.94453537 8
5 -0.71664411 2.5752401
5.3329 -3.0525706 10
5.5081253 1.4122808 0
-6.2505507 7.7867393 10
-5 0.31357503 2.9879799
-2.4069877 0.49826646 19.341408
-5 0.71329498 5.4640465
-6.5200272 8 5.6819358
-5.9155383 -2.1922762 10
8 5.0114346 1.7435728
-8 -0.33464408 6.1637173
-5 -0.007794261 1.8388762
4.4171896 -8 0.03776589
4.8738461 0.18551201 13.945093
-0.20990759 3.1500287 18.861153
5 -2.4066267 4.5143042
-4.8902235 -8 5.4183369
-5 -1.2063105 1.4711103
5.6168618 -8 9.8472061
-5 2.0950546 6.8480973
-1.875252 -1.5660262 19.350449
-5 -0.44866848 7.1628799
-2.9803014 -1.3373176 10
2.1039462 7.7885284 10
-8 7.9872141 1.3269171
-3.7850132 -3.158946 10
8 6.7510915 9.6750708
6.5218449 -1.5347669 10
-3.2456706 -5 5.3723888
4.1947412 -2.6604426 14.627423
-5 -1.682831 7.1371975
-4.0061755 5 6.7388644
8 -4.7611294 2.2400298
1.0536444 8 7.2081895
0.70257974 5.9006939 0
3.7455781 6.8454657 0
7.9405766 -8 1.8739564
3.6832566 -8 2.1828196
2.7867298 5 5.8389263
0.99787664 8 1.5913391
0.24297214 -7.3863897 0
6.4351077 -8 1.8980932
2.9317813 0.57305872 8
5.1757975 -3.8718832 10
8 -0.18317056 8.0663681
3.2735357 -2.7128553 12.386866
-8 4.9668908 0.56330609
-8 -5.0061216 4.0042248
-5 4.4456491 3.255017
0.81251401 -3.227236 18.70602
-5.0410767 8 4.9916239
3.8193314 -0.31030691 8
6.6298666 8 1.2062728
-5 -4.0630226 0.097881317
1.4478495 -8 3.2193186
4.923728 0.38271764 14.403677
-8 2.8140888 3.911938
-2.3768911 -6.7794104 10
5 -2.397738 1.3911973
5.4973726 -8 0.33141664
-2.809248 -8 6.3549376
8 -5.287447 5.3529177
-8 -5.2114754 0.34941566
7.8401737 -8 6.0367131
-0.23767185 5.8580418 10
-2.6921682 0.57557988 19.152748
0.53241229 -6.439353 10
-1.4380113 0.080743134 19.775995
8 1.5196543 1.7504402
4.4442554 -8 4.5092969
-2.8861971 -0.83240926 8
-2.0754802 -6.8550825 0
5 4.4135447 3.8138311
3.4856162 5 3.5664318
-3.1085219 5 6.0977888
2.620223 -1.2730408 10
2.19029 8 2.0268683
4.889689 0.56654376 15.752857
