# .PCD v0.7 - Point Cloud Data file format
VERSION 0.7
FIELDS x y z
SIZE 4 4 4
TYPE F F F
COUNT 1 1 1
WIDTH 1998
HEIGHT 1
VIEWPOINT 0 0 0 1 0 0 0
POINTS 1998
DATA ascii
8 3.4006824 6.551549
3.0973303 3.8087287 10
4.8002167 -5 1.9868979
-5 2.8160386 7.9138517
-1.0277082 -2.3629308 8
6.8723364 8 1.2102723
-3.3434134 5.2315149 10
7.1846056 -8 6.3145914
-8 7.6306067 9.8003883
-1.8511763 8 6.613986
-0.30085871 1.9179926 10
-6.8345728 1.6230152 10
-5 4.1668315 0.13326597
0.61774051 -5 1.5450211
-0.6339612 -5 1.5695267
-8 -6.5234389 1.9489943
4.9679136 -8 4.1410785
8 0.74804401 8.4547338
-5 2.4749045 6.4459763
-5 4.8840265 1.0354078
7.3554888 -8 5.3159513
-8 -4.1838684 7.7240376
-6.7800426 4.3028159 0
4.3529453 8 7.5405359
0.47719008 1.3612473 19.611584
8 1.0617213 6.3924899
6.6667175 -8 0.021160871
-4.5870724 8 5.8071489
-0.81053162 -1.4060025 10
4.9139814 4.9730654 8
-8 -6.1621208 3.4834399
1.171695 -8 0.3392525
-5.1003551 8 3.7905898
-5 -4.2553844 6.0282202
8 -6.4995193 0.96671087
-4.3845339 -7.7603827 10
-3.2462492 5 0.26855782
5 -2.6930194 1.3377328
-4.5496774 2.64889 10
7.5472422 -0.22732067 10
7.9783864 -1.6035595 10
8 -5.6764717 4.4270363
8 7.4595213 8.47474
5 4.4991789 6.4467311
-8 0.05826354 5.403429
-2.9928217 -8 7.1236277
5.2526283 -8 4.0607543
5.3176417 -8 2.0038505
-5 1.3567792 7.060966
8 5.372159 0.97606277
-7.9648609 8 4.8019724
-4.6236153 8 9.7836876
8 -1.9224241 9.606657
0.64776427 6.358078 0
-7.8811283 4.35744 0
5.1121197 8 4.915359
-3.024195 0.62655735 8
-4.1790714 1.2920154 10
-5 -3.994621 4.477716
-4.5464735 5.5696082 0
8 -1.2800722 9.6469316
0.99725306 -8 3.6548827
-8 -1.7955374 5.3809505
4.0062714 -2.2190084 8
8 0.32251167 3.9466412
7.7750835 8 1.8632019
-2.837574 -5 4.3659091
-6.8693619 8 9.3402853
-7.3978143 -3.3234763 9.999999
-5.4558258 -5.7930012 0
-5.6317873 8 2.2824788
-1.3775892 3.5834835 10
-2.3670123 1.6835928 16.266277
8 4.9284439 8.4599247
4.0113163 1.8714228 10
-8 3.5546579 9.3477869
-8 -3.1003335 7.9164028
-3.236445 -5.1965227 0
-1.2516375 8 8.9537992
7.7309074 -6.3895159 0
0.0032653809 8 8.1696644
-0.43924904 6.9005241 0
-6.1660337 -0.85022354 10
6.6892042 4.7835121 10
-0.08774209 -8 1.2023501
-5.0255451 0.91977096 10
-8 -0.034300327 2.2386529
5.5256653 8 9.0361557
1.0336177 1.0736625 12.302727
6.6079221 -6.6202817 0
-0.32245231 8 3.4118974
-8 -1.692672 3.7593083
-5.5997958 -6.2517843 0
0.92663145 1.8812321 14.874877
-0.71575165 -4.5271721 10
-8 4.9087214 7.6408167
-5 -1.8512909 0.25561285
-8 1.8866254 2.0499701
7.16747 8 9.8953781
-0.83745694 -8 1.4034652
1.1038088 1.0114789 13.454582
-7.0401793 8 2.4347806
2.3681598 5 2.8142359
-5 0.28363991 7.8246198
1.2148962 -0.86121047 11.251863
2.4355392 -1.6029761 8
5 2.2729294 4.197547
0.69781518 -8 0.968624
-5.4657431 -4.0096283 0
-6.1769524 -4.3523927 10
-8 -6.0694513 7.0040331
2.0551639 -0.18303716 10
-1.1785347 -6.1421409 0
1.4676701 -2.4701791 17.780487
-0.17471027 1.1989076 19.737551
5.2263727 2.5787234 0
-8 -7.1818228 9.5555611
-5.8605423 7.7962036 0
7.1656137 8 2.8763337
-6.6650972 -8 8.8214388
5.0519814 -6.3330436 0
-1.1489975 0.95668101 12.72112
-4.9999995 -4.1701159 1.5974226
-2.8203042 -8 7.5046711
-2.9015627 5 5.3330359
-8 4.5062895 9.758729
-4.8333149 5 0.46634302
-1.4558012 1.5033231 14.873608
1.733532 1.0246112 10
7.8451066 8 7.2642889
-3.6879277 1.2682008 10
0.98183429 1.1195388 14.343981
4.7428379 -1.7651597 8
-8 -6.814158 3.2059696
-1.2625625 0.79215384 11.473687
5.2450032 6.9844246 10
-2.3047302 -8 9.654295
2.7155948 5 7.4012456
8 -7.6595898 6.4795151
1.1144874 5 5.6343751
0.76575917 2.2589428 18.789633
5 4.5338154 5.1610312
5 0.60639989 0.62923604
3.3258109 -7.9568315 0
-5 -1.0890037 4.7041903
7.8727021 8 2.7905035
-8 7.2542386 7.7240171
1.0104069 -1.0942256 11.179644
5 -1.3577228 0.19136038
-1.3858707 2.5406315 16.244886
-8 -4.4597468 1.8567518
-5 0.16212481 1.2157497
8 -7.7960472 2.8083806
5.2036867 4.4613008 0
4.9329157 -7.2074518 0
2.2945852 8 7.1893921
1.8797112 8 9.5508728
2.0238991 8 1.0737222
-2.6008015 -8 7.8311591
1.3941954 -8 2.8480952
8 3.2234449 3.6606474
0.5801537 -5 5.3163195
-3.2971087 8 0.909428
0.62687016 8 4.2173862
2.0185306 -1.9528351 16.007589
8 0.14606953 3.3600221
5 1.7809768 1.303425
-5 -1.8611144 7.0032377
6.140132 -8 4.2109485
-5 1.4599456 6.4655104
-6.7442155 -6.2959986 10
5 -0.22842085 6.8623457
-8 4.0367894 0.68593037
5 -1.1741006 2.4915938
8 -4.2899637 6.1086812
-2.0283244 -8 3.6401336
5 -1.9797163 4.6918902
8 -3.1404705 6.1100793
-2.563643 -6.637125 10
-0.26130486 8 5.5827351
6.5378699 -8 6.4093547
2.6917684 4.7917128 10
-5 0.76705027 3.1973109
0.81058407 2.858099 16.770401
5.6385989 -7.5454421 0
-3.1791983 5 7.65171
4.5013056 -6.9838877 0
4.5541706 5 4.1614342
-4.8490782 0.26048076 10
4.7560825 -4.3582182 8
5.8776603 -8 1.4927523
-4.7086935 1.9027805 10
7.1365604 -8 2.8596978
-8 -6.8766751 2.1377242
2.6320605 7.7728944 0
7.8112121 8 3.8203967
-4.0147495 -8 9.3233986
-3.3460493 -5 1.6690375
-0.68009239 5 3.3037753
6.375658 1.1874224 0
3.1286561 8 8.8135624
-1.4877453 -0.052346624 19.586586
-5 -4.1142855 2.4705901
1.1888561 5 5.9929223
-2.3533497 -2.61168 10
4.0422707 2.2493372 10
1.3503048 3.1820216 10
-8 -1.7165124 6.0545249
3.5418377 -8 1.774264
-5 3.4677649 5.0615082
2.7114041 -7.1109037 10
4.9623618 5 2.1468518
0.64158559 5 3.6065233
2.6782804 4.5725894 8
5.9319134 -8 7.961133
2.6794472 5 1.3421905
-0.91014218 2.3143847 15.355389
0.30573553 0.97074735 19.807758
-3.0737717 6.1707525 0
3.6134632 -8 3.0171292
-5 -0.28584516 2.0736194
1.0278542 8 3.8661032
4.3048387 8 5.3491611
-1.3643428 5 3.4363251
-0.34716952 2.3473415 18.806864
-8 -6.8815956 4.1174779
8 -4.7776365 8.9263706
3.1228004 5 6.3903131
-1.4508662 8 2.931035
5.8642941 -8 6.6474433
8 -1.3116741 8.3419628
-7.497077 -4.8005791 10
-3.045614 4.1278667 8
-6.5193362 -1.1612886 0
8 4.2219152 8.3187904
8 7.2542467 9.8953943
5 -1.9107912 6.0387912
-2.0566797 8 4.0771208
8 -0.16732472 6.1125536
-5.6990557 2.734966 0
8 -1.8334067 6.6555176
-4.3688741 6.638895 10
-5.6161947 8 4.2024469
0.76903391 -5 5.5177116
-7.2199793 -5.2376089 10
-8 -7.3452773 6.3692894
-8 -3.5348654 4.4014511
7.6291456 -8 7.7309723
-6.3578134 -8 5.1446009
-3.5491428 -5 5.9978027
-0.32496345 3.6392217 8
5.495708 -7.9783435 0
-5 -2.1784403 4.8459959
-8 6.39644 8.5144663
7.2024031 2.806123 10
0.6350615 8 5.8008804
6.1074123 4.6612625 0
-1.2701912 -8 0.53447556
2.1150906 -8 7.7116642
-4.4767914 -0.36150789 8
-5 0.4078455 4.8651838
2.3723066 -0.54393971 15.25983
2.078763 0.33559859 14.886071
8 -7.4126673 3.06267
7.20087 5.3756461 0
-3.0112281 -8 5.2947001
-4.1108665 -1.39483 10
8 7.387517 0.72642213
-7.083559 -6.0761809 0
0.85321319 -1.233487 13.303843
8 5.7487307 2.6550355
4.3362122 5.0000005 5.8689747
0.78453273 5 2.4685471
-1.2342052 -1.6518873 8
-8 7.3604355 7.6329784
-0.84615505 -3.433892 10
8 -7.9165211 6.8268046
7.689157 -4.6039743 10
7.8022461 8 6.4070282
-8 -6.6349206 8.8295517
-8 -0.19578767 5.841363
4.7914453 8 5.7783694
-7.8031607 7.7946038 0
-8 -5.4313078 1.4802004
-4.6974244 -8 2.0445912
-8 -3.3423142 4.6510034
-1.4761307 3.6244605 10
2.9133554 7.0066829 10
2.4087582 3.2006152 10
-2.4865985 6.5149364 10
-4.9667463 8 7.0714478
-7.0146227 6.2434216 10
-0.77833343 -5 2.3710837
-0.81428242 -5 2.159039
-1.4689687 2.542594 16.488413
-5 3.8382483 0.99137092
7.6892252 3.0547929 10
-8 -2.7007365 0.070612319
-5.7987432 8 6.0880628
-2.7907305 4.6566648 8
-3.3809843 2.8746481 10
-2.3065557 -1.892297 16.964678
-5 1.8135918 4.2977772
-0.32735062 5.1962318 0
7.1131635 4.3881111 10
3.5561039 -8 5.9837537
6.1294088 -8 1.5631557
-1.6585875 -4.6146526 8
2.3305283 -2.2763133 8
-3.1574183 6.5570264 0
-0.62814838 1.3520131 13.740789
-7.7975383 -3.5310822 0
2.7600844 -2.0471079 10
8 0.3462137 6.1854424
-7.6371307 3.8121634 0
-0.14107656 -2.2382357 8
6.0977411 0.85747886 10
1.4882491 -5 3.4534078
8 -6.6276827 5.3341384
-4.2245355 -1.9615717 10
-0.47595692 2.4769692 8
-6.9699006 -8 0.39526862
-8 2.2898979 1.2367474
-6.5921516 8 1.5450937
0.35224915 -0.73184216 8
1.4692914 0.25290787 12.084991
-8 1.6643724 7.6461053
8 1.0525408 0.63915068
0.93905997 -1.507768 10
6.2500296 8 5.6540594
-1.3795128 -4.0886502 8
2.4057875 8 4.999373
7.7587924 -0.20009422 10
8 5.30231 6.3342633
8 -7.3630028 2.1639233
-1.1314164 5 4.587636
3.1903131 3.7739108 10
-8 -4.3179317 9.9999599
-1.9665911 -8 4.5454135
8 -3.6658041 5.1689539
-1.1638017 5 6.021699
8 3.3793612 7.5065117
4.8985701 4.0076275 10
-4.3004932 -6.3208618 10
1.7602844 -0.88754994 8
-8 5.5287776 3.9819713
6.3766394 8 2.3028154
2.5548 1.9881274 10
6.1108217 6.8400278 0
-5 1.8376117 7.4908333
-8 3.1809337 2.7086575
2.4926825 6.8506193 0
-5.969605 2.620852 10
5.5038252 -0.010035992 10
-8 6.9212222 6.2463684
5.5852532 8 2.744009
-4.1463189 -8 1.8923798
-6.6954522 2.7725458 10
3.6044035 8 1.6605145
-5 -0.093999624 3.0752602
8 -6.7094717 4.3126693
7.0704532 -8 9.1904888
-2.0969465 -5.4327717 0
-1.0555341 -8 1.5810509
8 3.6909065 1.9041076
6.8550658 -7.3823104 0
-5 -2.6127415 7.401309
0.69805145 -7.7808075 0
-1.3655937 0.29147619 8
7.7612977 -2.0740356 10
-8 -6.6855125 2.2506139
3.8926125 -6.2570381 10
-5.1155176 -1.4022999 10
8 6.2225714 0.64415824
2.0942349 8 3.912704
8 0.0049408078 5.7644916
0.93361294 8 2.6211267
-8 -5.2438178 1.8947599
-1.0572945 -1.0436593 8
0.41262054 7.9596152 0
-6.3001332 5.5572777 0
3.2317138 5 4.7187834
-6.3089275 -8 9.2693596
-5 1.5766393 6.2960677
-3.8740029 -5.0000005 1.2322661
-1.143898 8 3.6515355
2.6480279 -1.3148116 16.640854
5.9335337 6.47402 0
-6.7762613 8 5.1779642
-8 5.7056956 4.6923456
-8 -5.9197578 9.1709986
-1.5680363 -8 2.2167227
-0.54351878 8 0.93076766
-7.9000688 -3.4295511 10
-0.88859624 2.4087923 15.488106
3.1870232 1.4529954 8
2.5435421 5 6.142138
7.8133526 2.9912977 10
5 3.2839186 5.8463697
1.6746926 -1.890268 9.999999
-8 7.7671046 7.7491784
-3.178133 -8 8.6956644
2.9221191 0.45427182 17.382114
5.0049734 -1.0543251 0
-1.3589277 7.5278029 0
3.610841 4.7689157 10
6.1211348 -3.4282231 0
8 2.814867 4.4396768
-6.4860048 -2.4027045 0
-2.2044334 -6.8478551 10
3.3983912 8 2.4372053
6.1028748 8 1.3090253
-8 -1.7299612 2.093509
-1.8671744 -7.5365162 0
5.1194482 -7.8003545 0
5 3.7217863 1.2580568
2.5360765 -5 1.9691482
5.4044371 5.5799308 10
2.4650249 4.7018189 8
-0.3463695 -8 3.9551284
1.8173687 -1.9643857 15.679839
-3.5614519 1.2697344 10
-4.3391056 8 6.640029
-1.1018382 1.0132246 13.461395
5.1846457 -0.63451552 10
1.1966674 -5.8921556 10
7.904747 8 7.0634565
-5 -4.0860996 3.1132469
5.4183125 1.1837088 0
7.0157371 -2.6453018 0
0.3745327 -8 1.0914969
-5.9895515 -2.0731432 10
-7.9734621 -8 1.5278267
-5 -4.3878355 1.3654141
-7.8187256 8 6.4970226
0.035439812 -0.84602416 19.862148
-3.7453218 7.5974684 10
1.0914531 6.3596406 10
-5.0192971 -7.0883102 0
-7.131279 -0.5484271 10
1.0989474 5 2.3985338
0.47772819 1.4158783 10.637355
-8 -4.9364934 9.3958988
-8 6.6575809 6.8978467
4.9337015 -8 0.28883398
-4.6224651 -5 0.73498702
-0.051515579 -5 6.5467458
-2.3743815 5 0.3215476
7.5050764 3.4528499 10
-8 -6.8073702 5.9606085
4.9781809 4.7855997 10
1.1862863 5 7.413497
-8 -3.9887772 2.0553691
-6.1388788 -6.8162994 10
4.3558073 -8 0.36315745
4.117816 -3.070663 8
-8 -7.4655271 7.6655831
-5 1.5174179 6.1661987
8 2.1826558 7.902813
-6.1126442 8 2.1272047
-5.0024953 7.7694902 0
5.4575486 -8 7.9619508
-5.31498 4.1020966 0
-5 -0.79859757 4.7461004
-0.6869359 -6.5186419 0
-0.13172698 8 4.5526056
3.089051 -8 2.8264921
-7.827652 -8 1.9714959
-0.44701445 5 2.2317867
8 -3.4254911 1.2559928
-5 2.8108811 4.8861976
-8 -0.064176321 3.5593085
-3.379302 -8 4.4869967
-4.7535706 -3.0002582 10
4.6933885 -4.4329977 10
6.2078238 8 1.4983499
4.8532829 -3.0045338 10
3.8412492 5 0.86178577
5 -2.5516586 7.5203447
-2.9633379 8 5.0556145
1.99185 -0.13491423 19.218256
3.9349961 8 5.9544811
5 4.0182714 4.6020784
-4.4504967 -8 7.5912437
-5.0000005 4.2385974 1.1791373
0.11018968 5.2893858 0
0.7728467 -1.2760696 12.243942
0.9831934 -8 1.752355
8 -4.2372923 8.4202909
4.4784203 5 5.7468467
5.4662905 -8 5.28757
-8 -0.94917881 3.6384892
8 1.32603 7.7896714
-5.3223076 0.91383648 0
1.3683696 -8 6.9279499
-5.4851131 -4.8909092 10
-8 4.0006537 8.051878
-5 -2.2816024 0.94480944
-2.4355392 8 6.4962864
-8 0.16007924 0.29339513
-8 -2.7015619 6.2644711
-0.27352142 6.4244485 10
-5 -4.9437761 6.3425922
-3.4432068 8 8.7398815
-3.2937615 -5 3.380533
2.972244 0.0093285246 16.704206
7.6782651 -7.5617557 10
-3.6289954 -6.5056515 10
-2.6673377 7.8246374 0
-0.80993915 -2.5832469 8
-8 -1.1708908 5.2328501
8 4.4199066 1.7025163
-0.79151106 3.5040026 8
3.7938671 -3.0104842 8
5 -1.6630074 3.1134317
3.7887292 -8 3.8996019
-5.5569763 8 4.8965788
6.2882338 8 0.30073047
-8 -5.1941729 6.868947
-6.0888023 -0.56643176 10
-0.5998323 -1.3668747 12.173532
-3.7081299 -7.3593044 0
-5 -3.5177577 6.1257014
-2.9535513 -3.7843707 8
-3.5741327 -5 0.61275673
-5.6070404 -5.1989441 10
8 -7.2754126 4.2571831
-8 -5.6722236 0.12003192
0.85271686 -8 4.7305336
3.3189464 8 6.9247937
5 -0.90794909 3.7299001
5.6613793 2.8272846 0
5 1.0510297 3.0003841
-7.4278269 8 6.7142243
-0.99716103 5 6.5608745
5 0.12237744 7.4919786
-1.6109519 -8 0.95335031
-0.98474383 -6.2410054 10
-1.0076387 -5.2645235 10
-5 0.47619754 0.097909927
0.078531958 1.4890633 10.521112
3.1039734 -8 2.2646327
-5 -1.8849207 6.8421497
5.4376531 -0.63884735 10
0.42190957 4.1340246 8
-2.5265675 -6.7597504 0
-2.2029965 2.2120245 8
5 2.1358573 0.064994276
-5.7977428 8 6.4962769
-1.9296279 -1.1250808 15.028051
2.6458254 8 7.8135757
0.10866356 -5 6.5527315
-1.941072 3.4365654 10
-2.1943262 0.046396781 14.982378
3.1436601 6.0497584 10
4.8088574 -7.6085477 0
1.3911972 -5.3684683 0
1.7712622 -2.7968106 8
4.4488926 0.49652129 8
8 6.1937933 7.7216592
0.37165952 -8 0.085377067
-4.5023971 -5.0464845 0
6.5761728 -8 5.0171976
-2.0692875 5 3.8230667
0.86491251 -8 3.1099162
5 3.2836626 1.8804029
8 2.7951078 9.31528
5 0.30709511 5.9250526
-6.3766656 3.3476872 0
-2.2147946 1.3667282 15.541029
3.5630033 -5 3.9186807
2.5101323 -5 1.0489326
-1.5810554 -0.96078616 8
-3.8240762 -8 1.1645458
5.2263417 -6.4384513 0
-8 -1.6896727 8.0150671
-0.17029166 7.8492327 10
-7.0861306 5.3306484 10
8 -6.5489678 3.7329979
1.3465846 -1.8968706 15.131598
-0.74180812 -0.33016294 19.872599
-1.2197716 -3.4737575 10
2.4786363 -5.3628778 0
-5.2895226 -8 1.2913016
1.4003968 -3.2058182 8
-3.1699276 8 5.5466156
-1.08957 -0.26248896 19.775419
-4.0708466 2.9244907 8
8 5.5011044 1.7332959
-5 2.7003994 5.5159407
-1.7727599 -2.1125069 15.872353
-5.6590948 8 6.6131954
-5 -0.26603937 5.8129158
5 -2.9531748 3.1284974
-5 0.91260195 6.8327341
4.5978017 8 1.1621022
-3.39433 -5 1.7914935
5.824801 8 1.7989349
-8 -1.2147305 4.8311524
4.6992784 -3.289587 10
-0.88067758 -2.7829273 16.334843
8 -2.0035186 8.5395985
-7.1447611 -7.6427426 10
8 -3.8291068 3.877044
1.6315614 -2.6670175 8
1.072244 -5 0.68036842
2.7239552 1.6894678 8
-8 4.8431911 9.9527893
5.7643404 -6.2843232 10
-1.2912846 -8 0.23850138
8 0.038480759 4.0546741
8 6.9630785 0.73231721
5.7416477 5.8580418 10
-4.3537254 -6.8188567 10
3.1877046 7.40658 0
2.3864555 -8 6.9589086
8 -0.72222447 7.6957827
0.23432636 -5 2.17343
7.6102796 -3.8468132 0
8 6.850503 0.88316178
6.9823837 -0.084355593 0
7.8177891 8 9.48736
-0.5895195 8 6.3611741
-5.9933567 5.1857176 0
-6.8790731 5.9718437 10
-1.4674387 -7.0032301 0
7.7278876 -4.2879777 0
0.307019 -4.5414333 10
-1.8252542 5 2.6764951
8 5.3640604 7.6220913
-5 -0.061221361 5.4286637
-8 -0.01464951 2.7189405
-7.293251 6.1516976 10
8 3.1844902 1.1010059
1.4938743 0.050450008 13.634419
-7.1922975 4.0172153 0
-3.7517602 -5 2.7568889
5.4256926 5.5418615 0
5 3.5273268 0.51988167
-2.5326743 5 5.2895422
5 4.5388594 2.8543077
4.9585986 -8 2.1609364
1.4446378 -7.0161672 0
6.6966314 -8 0.011992586
5.1051173 -5.166636 10
-2.4965332 -7.9404249 0
-2.0345497 -1.2878456 15.230639
-4.8353233 -8 6.2934971
-0.42322683 -2.8394222 8
2.7764769 0.6634143 16.127577
5.6513577 7.7442946 0
3.9292083 8 0.11493444
-2.8558984 5 5.3973446
-0.3469193 8 2.4287601
-4.2335572 5.9121995 10
-8 -3.7079492 5.720427
-8 2.979125 1.6575795
0.40452075 -5 3.043469
-1.5331173 8 9.7092018
-2.187232 1.262158 18.596548
-1.7020676 -2.1818745 18.126089
-0.75253987 -4.376503 8
-7.5686231 5.0876527 10
1.5110202 -1.8596256 18.774515
8 2.1702158 7.6540403
4.1088686 3.5836964 8
-6.7078838 8 3.4516394
5 2.5217826 6.0351925
7.4898458 7.9213438 0
5.2563095 -5.9371653 0
7.5412025 6.9589157 0
4.465435 8 0.97327411
5.3507628 -6.8011136 10
5.1437402 -4.9138374 0
-4.6609039 8 5.7064877
0.82089496 -8 7.7336073
6.2435532 -6.8848562 10
-4.1971321 -6.9113612 0
-4.957015 -8 5.9471006
-2.1132612 -8 9.1274462
0.27998018 -6.9827714 0
7.542501 2.8812699 0
5 -1.8424592 7.8059335
-8 -4.6137061 7.0304418
5 4.302494 7.6653666
4.7412763 -7.1687317 10
-3.3804512 7.0975575 0
1.3046235 0.7312181 12.883289
-3.6219614 8 0.22864163
-8 5.3552375 2.2498972
8 3.6244559 9.3174458
-8 -3.7629833 4.1875863
1.6010681 0.29272062 10
8 -4.6739292 0.16364358
-2.8748815 -0.63806564 17.53706
5 -4.830997 1.8201309
-2.1142182 6.2419634 10
2.2538283 1.1983151 15.461021
1.7017318 2.9668829 10
-8 -1.6376119 1.9468268
8 -0.71940684 9.3555317
0.68634653 7.9128151 0
4.2402368 -8 7.7671576
4.749752 -5 4.5647955
5 -2.7276328 0.24543771
5 3.8045907 0.44332474
-2.2796242 1.6483307 16.021397
3.3453636 -7.4933653 10
4.3436146 8 3.6918962
-7.9951472 -2.469039 0
-5 -4.4770398 6.4354019
8 3.9815331 4.4056778
8 -5.4063668 3.161304
1.3607068 -0.61132926 11.432613
-5 -2.6874957 3.8194103
8 -3.2546368 0.94427836
0.9958967 6.4357505 0
-8 -3.3271616 4.5759068
5 -4.7236729 5.89217
-6.0817637 -8 2.2451715
-1.0799841 -8 8.7243557
-1.4362078 8 4.4858947
-8 4.5161819 7.7513413
0.20906985 -4.0226436 10
8 -3.1827917 7.0933561
-8 1.7363174 5.793561
1.7238141 8 3.1030631
0.98148686 1.2967137 14.496976
-1.2624247 7.3519607 0
8 3.7651358 3.0330224
-8 -3.242538 1.4762632
6.2466016 -3.0648766 0
8 -4.2748508 7.7382135
6.4491444 8 3.3644068
8 -6.2982078 8.9202175
5.846611 -8 1.7216188
-1.20622 -5 2.5704145
5.8586283 1.0884233 10
-8 4.1312537 9.432374
-2.8459501 8 5.5567384
1.5628492 5 5.6304007
-8 5.7120366 0.45201916
7.401001 -0.3691054 0
-8 -5.6855526 1.6231744
-7.1901345 -8 8.0490608
-4.9999995 3.8215518 1.1630124
2.4061422 -8 3.6121554
-8 5.8215971 7.5889897
-4.6151204 -7.0699301 0
5.0890064 2.6582956 10
8 -3.5735993 8.7711315
-5 -1.8969364 4.5893183
0.37929034 1.8626366 8
2.4359968 8 1.1901033
1.8614113 -0.22754017 10
-3.862237 -7.0477147 10
-6.1066122 -3.9626288 10
-4.1885624 -5 1.5841274
8 -7.9788289 4.1953273
-2.8098946 6.3720975 10
6.5847173 -2.1307867 0
-5.1037841 -5.7646089 10
1.0078335 1.3159497 8
-0.62244749 7.4063907 10
-5 -3.9716408 1.6366348
-4.2848225 -5 6.4804244
8 -2.3960135 2.0784626
2.7722287 0.86344838 16.320583
-8 5.5309916 5.3520255
-8 -0.47458053 3.7218959
1.7491145 5.3418651 10
-0.16597366 5 1.9374917
2.8289871 -7.1695938 0
-4.6354995 5 7.3958669
-8 3.0736639 4.4910097
3.7893641 -8 3.1477997
-0.96177596 -0.53148943 8
1.1747012 6.7662826 0
4.2665815 -4.3380189 8
-2.0226665 -5 0.42734671
-0.76957798 -8 4.9671941
-4.1133385 5 2.1236191
1.957387 7.5621033 0
1.6873565 -8 6.3844962
1.5028526 -8 2.4393809
-5 2.2172699 1.9776812
-6.5715671 -8 7.115438
3.6155529 -5 6.4136477
-7.288619 -8 1.0033561
1.6952777 -8 4.7602081
-2.1241066 5 7.659379
-2.9850945 -1.7488394 8
8 -5.2027473 6.26896
5 -0.11130071 1.4709442
1.3979697 5 6.015955
-4.6385794 -6.1194344 0
-2.5310221 8 4.8805208
2.1995184 7.2922907 10
-8 0.9544096 1.6417301
8 3.1621389 0.19945006
-8 7.4818459 5.5908446
1.0723835 -5 3.5948629
7.8425708 7.7128153 0
5 -0.99352598 3.6716254
8 4.4650116 0.24603611
-5 -1.8427538 6.2401819
-3.8784351 8 8.0435829
8 5.6251154 9.1499596
1.8028545 1.40807 15.082164
-5.3481979 -8 6.9456534
2.21878 -8 7.1859198
4.6849623 -8 2.9275935
0.75571924 5 6.9448581
2.0155435 5 6.0733662
4.2194395 6.4233875 10
-3.3677659 8 0.9204942
-0.79987836 -1.2618823 12.250452
-6.9715881 8 2.6157026
2.9238367 0.1731903 10
8 7.5419397 5.7760305
2.299207 7.727725 10
-6.975544 3.8894825 0
0.52543825 2.9013619 17.455204
6.4733205 -7.771924 10
7.2956395 -0.58979225 10
3.4699631 -1.9595561 8
-1.2348628 -5 7.4010334
-8 2.7883828 8.924921
6.9687967 3.8767059 10
-5.4373493 8 5.5727396
-8 6.5100489 1.4860959
-2.415184 -8 0.72073519
0.31871057 -6.1803303 0
8 4.5703459 0.43681332
1.2900798 1.4575604 10
6.1603794 -8 8.2487555
0.9105041 -5 1.5985298
8 -3.7921059 4.0804129
6.7862134 8 8.1989183
-1.3382585 2.4653363 18.014582
6.0050087 8 3.2585745
2.5749378 -2.7859812 8
-1.7474858 -2.1863055 18.049017
-2.796566 -0.85209215 8
4.6677551 -1.4744952 8
6.4026237 8 8.075098
4.3096795 7.5787292 0
-8 6.8804698 5.6550412
0.22527945 2.687247 10
-3.3113785 -5 3.8009028
-1.4987105 1.0405128 19.364277
-8 -6.3509789 2.5977895
5 -0.39081395 7.8527837
-0.87134248 1.4297655 19.483526
8 -7.4790602 0.85592699
-7.7473454 -0.39517212 10
-4.042963 -5 6.9287128
-0.97527742 -2.4436367 15.592186
5 -4.8321819 3.3606067
-2.1163719 -5 0.19273233
-3.7487268 -8 1.8247741
2.6688006 -1.2143887 17.580252
0.088911414 3.4864998 10
5 2.9692473 6.1148014
0.33148623 -0.68488669 19.888645
-0.76749671 1.9754248 14.899584
-0.27881718 -3.7955976 8
2.6766124 5 1.263146
-8 4.3995099 9.8567677
-1.9802547 -8 2.2072663
-1.1810515 5 7.2586422
-0.3769834 1.4407096 12.516196
-4.0196552 7.8355837 0
-3.4850349 8 0.69089293
-8 5.4372687 8.6422892
1.549468 -5 1.4930415
1.4199967 -0.45499432 12.109418
-0.9140799 8 3.0306773
2.6124263 -3.2564654 8
5 0.64805782 6.7488937
1.0873077 7.3019285 0
7.5058899 -8 4.5432749
8 6.0054579 1.3101403
5 1.4668709 2.8732417
8 -0.39235139 3.6286502
2.2359023 6.7553167 0
2.2418222 4.4346623 8
8 -6.4240589 0.54973495
7.8401279 8 9.2739305
-5.8608313 -8 8.8717117
8 -4.252501 6.7969027
-2.8168149 0.80328465 8
-8 -1.2117578 4.2384768
-1.6912352 -8 8.8213177
-5.9750414 -8 5.7291937
-2.5412457 -1.761245 8
3.1054513 8 1.0772324
-1.9837189 8 5.959981
-8 -1.0859628 3.164088
5.7458401 -8 8.3149118
2.7019925 -0.7823053 8
-3.8473082 8 8.9590683
-8 2.3440857 7.5298877
-3.5230093 -6.6381016 0
-8 7.4625306 9.2559252
-2.5929863 5 1.3782768
8 -0.15528393 2.9967813
-2.6937706 1.1399858 16.384851
-3.7797163 -0.081225634 10
8 2.6068695 7.5236659
-4.050539 -5 3.0855601
0.81533051 -7.5912704 10
-8 -4.1639099 5.4924498
-1.6216046 1.6729203 15.12979
8 6.6911602 0.84412509
-5.1177073 5.6442132 0
1.0917983 7.3762741 10
-4.5848103 1.7886803 8
-2.3510799 1.4317098 8
0.97064334 -5 0.0025091171
-5.9696388 2.8764296 0
5 -0.37288466 7.8677397
0.90397882 1.1885127 13.764592
-8 0.66316128 9.8227253
-6.1346087 -1.3492315 10
7.7512426 8 7.5595241
5.0763273 1.4228052 10
2.0420318 6.0371728 0
-1.0124178 8 8.9342594
-2.6229267 -4.548758 8
1.4313266 8 2.7627826
8 -3.2211177 7.3984938
-8 1.0028579 9.8505678
5 -3.6343188 0.9455049
7.3940234 8 4.2435875
-3.3051662 -5 2.1887281
5 -4.5281062 0.33502772
-2.3350167 -8 0.79511249
7.8933039 4.3329911 0
-5.2773457 6.3610239 10
-6.1767979 -8 5.3738718
4.0533018 -5 0.44507694
-7.5531631 -7.0329823 10
3.8183923 5 6.0317798
5.370697 8 6.4799776
-7.0221243 8 2.0815148
8 5.4133291 1.3793818
-8 1.9897087 9.0379601
0.9594574 -2.7410688 8
-1.6741843 -8 8.3919697
-6.8681316 8 8.3056259
-2.4648161 -6.5470481 10
-2.0137827 4.0474796 10
-5.22577 8 5.19452
5.6813436 -4.0190768 0
-8 1.5780218 2.9552701
-5.032753 -8 2.1239803
4.8398652 5.747673 10
-8 4.2119026 1.009169
8 -7.972672 4.5275073
-6.1484728 -8 8.6767921
4.9616041 0.41226417 8
-5 -3.2266231 3.3900914
-5.6619792 8 1.3840258
5 -0.13905621 4.2942514
6.3184671 1.2948372 10
1.0689538 -5 2.5154572
-2.380043 5 7.1722984
5 2.4795344 1.2975639
6.6435885 -8 6.0363793
-3.2857475 -8 0.99832833
3.0026188 -3.9464488 8
-1.3568335 8 5.3239226
-2.8966467 -5 1.2990546
3.4006062 -5 2.4582028
5 0.80915165 7.1584973
3.2068667 2.0812151 10
-1.4001119 1.4216057 19.216511
8 -0.2807436 3.0578098
-1.4260464 8 4.7433133
7.0446124 -4.3844523 0
-2.715786 8 5.957942
-2.3537862 3.034616 10
3.4362798 -6.6584964 0
-1.8280602 8 9.5082016
1.468955 -0.25567693 12.644175
0.048150778 -8 6.8547988
-4.9882903 -8 5.9473839
4.7227268 -4.1858797 8
8 -5.4765015 5.5879726
-1.8865521 -5 0.43060446
-0.49408555 -6.6291733 0
0.030368563 0.62596768 19.930332
8 -5.0220995 9.2153769
-8 -7.0918126 7.0289087
-1.1400462 -2.0672312 8
-5 -0.88650823 3.3656602
2.2375469 1.7757726 8
1.2705379 0.78059971 14.373055
8 -1.9079494 1.4004996
2.5319521 5 5.5309448
8 1.7510147 3.4790921
4.1877098 -5 3.9275942
5 -2.8399239 5.7992296
5.8087859 -1.2500728 0
8 7.4939947 8.4502373
3.3284736 5 5.0855355
7.3575554 -3.9880917 0
8 -5.909977 6.0710783
8 -2.1915867 4.4278326
3.2641335 0.99432629 8
-5.913311 2.6179438 10
5 3.9940467 0.75349689
3.9062521 -3.1343141 8
-2.4044843 -1.2816617 10
-2.8259704 0.80760843 17.513334
5 -2.2412612 4.5964713
-8 7.5230713 4.8373008
2.9873381 -5 0.54663754
1.9384022 1.5021594 8
-0.11678648 8 3.1982172
0.53386307 1.4014978 10.727686
7.9058776 -3.4452705 10
-1.9699569 -6.9590082 10
-8 -4.3817344 0.63489586
-2.68295 -5 1.6547914
-2.487587 8 7.9804683
-1.3273571 -5 2.7030292
-5 -0.76698208 7.4027328
-0.64377439 -2.7897491 17.823977
-3.2704401 -0.71534193 8
-5 -2.805871 4.3017101
-5 2.1821766 2.2354231
-5 3.5436828 4.5386143
-5.9342475 3.2700908 0
7.0665402 -5.1247149 0
7.1219292 4.7204962 0
-4.0398531 -8 8.0325356
-6.8063436 -8 5.7855091
-0.09843564 -0.29710364 8
-1.7234812 2.6706829 10
-8 5.0565777 7.767117
1.3169978 7.219697 0
0.58365583 7.9026122 0
-8 5.0223432 6.9532251
2.4214454 -5.31741 10
-8 -4.1363525 1.4559729
7.1824155 7.1789722 10.000001
-0.92535591 -1.4997796 8
-2.6702366 5 3.0121143
-1.455364 -2.593996 17.089893
1.9776483 -6.9968762 0
2.4437466 -1.1142224 10
8 -2.7299397 6.1249905
-5 2.2616367 3.563858
-6.840251 -0.69564855 0
1.7881739 -5 0.99199438
-2.6695218 -0.17790592 15.668796
-5 -3.2665949 7.3712506
-1.4513617 5 2.336606
0.35643721 -2.929462 10.000001
5 -2.0854533 1.6752763
-0.47149539 5.2364202 10
-6.8980379 6.3173871 0
2.7691624 0.96970916 17.529724
-2.262368 -8 5.5396771
-5 -4.7701225 6.4680371
-8 -5.3369703 9.6306715
-6.1100731 3.5448208 0
-8 -1.9987249 0.55254221
-5 3.257863 6.9988327
5 -4.3040013 5.0494614
-1.2670641 8 0.9830457
-3.9737153 0.7568475 8
-8 -3.3596256 4.4916196
-1.4576566 -0.34872869 11.878351
-8 7.9538908 2.65189
2.353811 -8 0.32046419
5.6809425 -1.5913877 10
5.1317492 7.3309565 0
8 0.76870537 3.7589731
2.8630466 8 7.3576312
7.0950866 -6.9837918 0
-0.15475512 -8 6.6958089
2.0631595 -1.2526819 8
8 -2.5678682 9.3127499
8 -1.0793245 3.9080825
8 1.1574621 0.29583329
-3.8292933 -6.5772576 0
-8 3.3412097 1.051234
-8 1.9631262 4.9129224
2.0071025 -5 4.4194179
-2.0675149 -0.77400935 19.014059
-2.4901261 -0.31564873 18.619574
5.7993979 -8 9.6216774
8 -4.751688 4.5187483
-7.3585882 4.4751878 0
-2.7711167 8 1.4236981
0.28411508 8 7.2310886
-8 -3.1458356 5.2049513
0.52144122 6.770731 10
-0.58036292 0.41932851 19.90284
8 7.5673208 2.7550249
3.0165143 -5 0.65966606
6.9653096 7.9357815 10
-4.7722712 8 7.6543636
-5 -2.2585516 5.4539833
-3.5841842 -8 6.8472862
-3.3931725 -2.8171337 8
6.422524 8 0.18110216
-1.7598143 2.7141714 8
6.3682628 2.6370819 10
1.4341497 5 4.2480445
5.1896372 -8 5.4531965
-5.0097327 6.5028648 10
0.53073692 -7.8131495 0
-7.9819617 -8 0.86528033
-8 4.3526211 1.9094983
8 -6.0278721 7.648819
-5.8634462 -0.93543112 0
8 2.9557161 4.2002206
3.7626972 -3.4722743 8
-4.4399252 8 6.9947686
3.8658161 5.0000005 5.9011612
-8 -4.1113963 2.4554696
-2.0938368 6.630815 10
-0.69040167 -4.0940371 10
-2.2178347 -4.9740868 10
-0.76966614 1.2777389 12.715803
-8 -5.4458833 0.98858774
6.13377 -0.48954177 10
2.8957574 -0.6827085 17.08168
-4.3890772 -5 7.597857
-1.1343081 8 1.4889783
5.7264996 -0.85644495 0
-2.7287052 -7.1631212 0
5 4.9490581 4.8420782
-8 1.2044632 7.5756745
6.4614086 0.010890484 0
7.5905104 -8 4.6900764
-5.5376358 -0.9427042 10
5 1.618598 0.29815409
-6.6446824 -8 4.9317164
1.0879271 -8 3.4974213
5 2.8667865 2.6809456
6.1436453 2.1888032 0
5 4.2318172 4.9371142
-1.7274742 -5 5.0368633
-0.94904774 5.946053 0
-5 -1.3486289 7.7995119
-1.147951 -5 5.4983525
-5.1741757 4.3811707 10
-1.3880508 -2.3183856 10
-8 6.1949215 5.6883087
8 -0.11928463 4.6634007
-1.099191 0.23120621 8
-7.8491383 -2.9935813 0
0.88120556 6.6327748 10
5 -0.66859102 7.284256
-5.8202391 -2.2655356 0
0.49529624 8 4.7223711
1.625654 0.078245059 14.496516
-0.21153307 5 6.8766909
-8 4.7477345 8.7786779
-0.85227722 -2.5293384 15.667736
-2.8519316 -0.43738657 17.74321
-5.9471846 8 5.0463095
4.4423094 8 6.9603896
-0.24196881 -5 0.51942682
7.1704035 -8 5.3386436
8 -2.9372525 4.5437274
3.1991243 5.2331877 0
8 -0.69996214 7.4481611
-8 0.70554245 3.1939435
-3.3028402 -0.58655834 8
7.2872791 -8 5.9323354
-8 5.5130701 7.5728621
1.020777 8 9.6601791
-4.857645 -8 9.6488132
4.690659 -5 6.2262006
5 2.2682672 0.7731083
-4.5821495 -8 4.4245677
-8 -7.6661105 8.9382086
-0.74002951 -5 0.64610243
5.7842622 -8 7.5519214
-1.3587103 -2.4221239 18.090796
4.529583 0.7675162 8
5 -1.5611967 1.9511974
1.2989513 -5 2.2624435
-3.7274237 7.1626892 0
-1.3359429 0.6766265 13.307196
6.4906955 -2.0310917 0
-8 -5.7980957 5.7826548
-8 -7.6662531 2.5136709
-5 -1.0185106 4.3871937
-4.2785592 5 2.6736493
3.2190149 8 9.0804453
4.6425734 5 7.2891173
-4.6590204 8 6.4563909
-2.9622078 0.14612576 17.294516
6.0781698 -7.6143875 0
4.3671689 -5 3.1654634
-2.1123693 -8 6.5605826
-3.5263624 8 6.4145432
-4.6055908 -6.0204358 0
3.8631904 8 6.8389711
-6.9196963 -8 7.2773352
-3.8326092 5 4.760159
0.40682977 2.8270392 17.845024
-5.281908 8 6.5268965
3.3003416 -6.3399668 10
-8 3.6860409 9.5598593
-2.9020383 -2.4497786 10
8 0.056124926 7.9771147
-7.0669365 -8 0.54430896
4.7253394 5 4.6331706
-1.4746175 0.20904347 11.203793
8 1.8627548 5.7260842
2.2444403 8 4.8052506
5 -1.7806427 4.1742005
-0.75442392 8 0.25421381
5 3.8799925 1.707761
8 -0.063389063 2.7895632
4.4304805 -5 0.47129202
-7.5284448 7.3883615 0
-6.9722977 8 4.5794644
-3.7762756 8 9.6215849
-8 4.3568711 1.1142092
-2.1829414 0.80218089 8
8 -5.2857118 6.2287397
-8 -1.8158889 2.1562786
8 3.024128 2.1058671
-8 -6.5759406 1.6132877
8 -1.8528558 5.0570984
-5 -0.19541717 5.9431591
2.2857206 -5 1.6235514
-7.4506569 -8 2.9160652
2.7165098 -8 0.0090749012
3.9784098 8 8.7164707
-8 5.1475501 6.6385136
-2.5405622 5.3412471 10
8 0.67978001 9.7173309
-1.0086075 -2.500443 18.274307
-7.9021215 6.3506613 0
1.6765728 1.7807983 15.280845
1.4499546 8 3.3367176
-5 0.43886733 1.778935
8 5.5199451 6.8365049
8 -1.7643602 3.3993344
-8 -3.9646161 4.3378849
-0.014173031 5 5.8499746
3.8777103 6.4237823 10
6.5464215 6.0849452 10
-7.7623587 -3.2179675 10
-8 5.4613771 4.8850398
3.8599491 2.0983539 8
8 1.0151165 8.6224165
7.1094809 4.5523634 10
-0.74689364 -8 2.6993504
3.6163998 -3.7731907 8
8 4.4583025 3.0549405
-2.3600543 1.5123833 15.98717
-3.9363401 7.1441612 0
8 3.3425426 0.74304831
8 -1.9736228 6.5736227
4.4691143 8 2.8496571
8 -2.4677496 2.7672136
-1.213295 8 3.4635882
-1.6254841 0.95309281 19.311058
8 3.6808825 2.1189394
2.8555565 8 9.6673155
5 3.3902559 1.2555466
-3.14325 7.6303635 10
0.93577588 -2.0699654 18.934954
-8 -4.1422086 0.82747072
8 -3.4593468 1.7299635
-2.8136921 5 6.4574995
-1.1507655 -0.9541198 14.290693
8 7.3318043 6.7113872
-8 -5.4136672 6.9266152
2.8914618 8 0.5186516
2.050025 2.2309017 10
4.7788563 -8 0.34648639
0.24672839 -1.5229251 10
5 4.4456453 1.2762505
0.49741262 2.8714945 17.617699
-1.6236645 -5.7790895 0
4.0345631 -6.6389928 10
3.6708493 8 1.7740512
-8 3.3933229 8.8052225
7.229969 2.463876 10
1.0171595 -1.0882432 13.167662
2.5993633 -1.0014203 8
0.91006625 5 3.810416
5 1.1270437 6.0448289
-2.8096886 8 3.7426753
-0.66084099 -8 9.7546911
6.2577906 -3.9474332 0
-0.019073606 2.5215993 8
1.7873329 2.7942548 10
-8 -3.7573166 9.7561731
5 0.60210705 1.730404
0.16359448 -4.5153604 10
-5 1.4484291 3.2678688
-5.5654135 -8 4.3930869
8 -6.6102233 2.9776516
-5 -4.4539371 0.91017485
-7.1099062 -0.133708 10
1.366962 1.3146192 19.301682
-0.62473822 -5.1853704 10
-2.6715527 5.9532518 10
8 2.8929386 9.9036894
-1.6524677 4.905179 10
8 1.8827629 9.9039431
-5 -3.6813862 2.0629296
2.3382025 8 5.578661
6.1085987 -6.8118792 0
6.2087016 -5.6831846 0
5 2.9649818 2.0587957
8 0.79831028 4.3274336
-8 1.0594031 3.7002461
0.3311429 8 4.884943
0.13646221 8 2.2630215
-0.29619169 4.8610024 8
-0.96661961 -1.3774614 19.475851
0.92711449 -8 1.283778
-1.9775521 -0.1759183 19.226982
-5.6326666 -6.5144906 0
2.164813 8 9.6992197
8 -5.0390472 3.4353635
-5.5251493 8 8.8674707
-2.1860123 5 2.5806396
5 0.029637337 1.5165279
-2.4184628 8 9.7447348
-6.2173538 -5.7059836 0
-8 -0.25327539 1.6230097
5 -4.7149372 4.6182694
5.9454961 6.6726689 0
3.5694678 8 4.7922726
2.9412029 -2.0699713 10
5.0747542 -0.14728022 0
7.6171474 8 5.9106627
-2.0375717 -6.5917006 0
-2.0747828 -7.8416023 10
2.2851121 -8 9.3870306
-8 3.9558158 9.6409674
-4.9181194 7.1975799 10
7.9843445 8 4.8523502
5 -0.76274693 6.3423162
2.8230848 -0.8878659 10
8 2.2517776 2.9745638
5.9748907 0.40672952 0
8 0.34749126 3.1492193
7.8209796 -8 6.9103241
-8 3.791224 8.2148485
-3.6089106 8 1.2221754
-5.8137732 -8 3.248116
7.2933807 -2.3023877 10
6.2249632 1.8964646 10
8 4.1940527 2.9143786
2.10571 -5 5.0799508
-3.6465113 -3.1390357 10
1.1806118 5 0.57048517
-0.89269161 8 6.3083248
-6.18363 6.0796452 0
-0.597036 3.5800645 10
-6.2684741 -8 9.5453262
0.42797327 -5 5.7110028
8 -0.66674948 7.4500017
-8 -6.9782248 2.8590977
-6.2525802 1.087497 0
-7.0478745 6.820312 10
5 -3.1311245 5.9027061
-0.62036151 1.3561 12.022198
3.6332798 -4.0114594 8
-8 6.2237449 1.9802675
5 2.6619217 4.1742759
-5 -3.316596 7.6780543
-8 -4.5773792 7.9292417
-5 3.3782158 3.6535342
-1.7324475 -2.0401001 15.678873
-7.2018847 -1.214118 10
-7.8525925 0.58929729 10
-5.174798 1.0401523 0
4.4039936 3.6010089 8
2.7380893 5 7.5576038
6.3545017 2.6130595 0
-8 -3.393465 5.9794998
5 -4.2963228 4.5444388
-8 -3.8877792 3.1645463
5.972086 8 9.9616308
8 -4.7695594 6.647109
5 -0.51152283 2.3838367
-4.1274581 5 1.3629982
-6.9317479 -8 1.0635214
2.9918807 -2.488296 10
-7.8998246 -1.5276885 0
-1.5198383 -0.11271845 19.565151
2.0901055 8 4.8085647
5.3393745 0.46486318 0
6.9961824 -5.1057119 10
2.976022 3.788146 10
-0.80273998 1.2603805 12.998836
-6.7247272 5.1045895 10
-0.21702862 -5 6.8078785
0.94617569 -8 3.0200899
6.249052 8 8.8845797
-4.1682725 5.3105717 10
8 -1.6620438 8.2919645
-6.1266193 7.6482549 10
-7.1656704 -8 3.8009121
1.5712441 -0.26859057 8
5.5163732 -8 1.5300037
5 2.4917061 4.7946725
-2.8093495 -7.8535571 0
-3.3836126 -8 4.8533936
5 0.40035635 6.322125
-4.7972107 -5 2.8595157
-4.4619188 -4.7576528 10
-1.7101048 -1.3814691 14.985035
-3.7835217 2.8665209 8
5 -4.780324 2.3830924
6.803658 -8 3.820322
8 0.32028136 5.2550182
-3.9763031 -8 6.8739409
-8 6.2931967 7.1205993
-2.8706083 8 6.5637121
-2.3593066 5 3.8697181
2.552398 -3.9314585 10
-2.0830038 0.56521833 14.940857
6.9975033 8 4.5631461
-8 3.6973214 0.74768913
-8 -4.7967935 4.6971216
-2.1987171 -4.5383921 10
3.8017805 -5 7.8924398
5.8938894 8 7.6415071
-7.9091411 -3.2291508 10
-1.0594039 -5 4.3822975
-2.2143531 -6.4644632 10
-7.8903065 -2.6039343 10
-6.1152282 -4.1451998 10
1.63761 8 0.93898714
8 1.9735322 6.7814779
-8 5.0422959 1.7495252
-7.0808907 8 5.2928243
1.8183384 6.0785079 10
1.8958323 -0.49701297 14.739218
0.44336632 2.2496476 15.094152
3.4327774 -8 7.1587281
-0.17320061 5 7.0507655
-0.087046266 -0.71444505 19.901695
1.5032678 -8 6.5318284
8 -5.4244018 9.9739513
6.6723871 5.9474502 10
5 -2.019767 5.6267853
3.1442752 -2.2921209 10
-1.9829959 5 1.1622177
-1.9811137 -1.9935262 18.004629
-1.6987901 4.3109732 10
-2.1031203 5.8377957 10
5 1.178749 5.687161
-8 6.514164 7.4466949
-0.49952531 -8 0.48790798
-4.313798 -8 0.24647786
0.55066872 -5.7598586 10
-0.46769917 -4.1401854 10
2.2833514 5.0013351 0
0.70885587 5.3714485 10
-5.4048471 -0.19774657 0
7.8793974 -8 2.6093752
7.7629042 -0.88802826 0
4.4548559 2.2338026 8
-0.84074247 2.8373742 17.421282
5 -4.214654 2.4793367
-1.2044125 -5 6.0825686
-0.13732111 -4.4418306 10
-6.0806608 7.0593438 0
0.78421879 7.4486799 0
7.819736 -8 9.705966
5.8593936 -1.6589226 0
8 4.5827007 7.3273454
-2.3797393 -8 1.3696369
1.3846161 4.0379009 10
-1.4776599 -2.2378507 18.303371
6.2043309 -8 1.7414178
-5 -4.9274702 3.4850726
-8 -4.437211 1.4070293
-2.8264194 5 4.8426967
1.0985075 -8 2.816376
5.5838647 -8 0.68784803
-0.10081935 -4.449996 10
-6.9537754 -8 8.4725637
-2.6709318 -3.6680758 8
-2.2314932 5 2.0612202
2.803504 5 0.38752407
0.020536542 -2.9932933 10
-2.2086959 0.59018427 10
-5.3136721 8 4.5666161
-8 5.9014797 7.7570863
0.81598467 -1.2534292 10.08021
2.8129277 6.5282955 10
8 -5.7621989 5.5190191
8 1.1654835 1.6734055
-0.91760612 -1.9549229 8
4.6410742 -5 7.1191134
8 -0.0081472397 0.60656154
-5 2.0690112 7.700201
-1.3784946 -0.56442654 10.21849
-8 -0.38272816 4.495316
-0.56243706 5 6.181313
5 1.2764881 7.7292519
7.8042712 -3.8960199 10
-3.4134357 7.6760025 0
3.3397093 5 1.5902444
-8 -1.0539874 9.2913609
-2.280097 8 8.1799545
-3.826869 7.7945104 0
-5.3707681 2.3448873 0
7.0479913 -8 8.2540998
8 4.9334078 5.3693762
1.5378575 -2.3698673 8
8 -5.6472526 2.976378
8 0.054735184 1.5772135
-3.4588737 5 2.2270021
6.229743 3.8664155 10
5 2.9237528 5.9854279
5.1554198 2.7523561 0
-5 -0.58766443 2.0247126
1.9406649 5 4.0998707
-0.21192928 1.9606278 14.749732
8 -0.11390853 2.2409182
4.202302 -8 9.257103
-0.30129981 6.1632156 10
1.2732804 -0.77662635 13.191599
-0.29451394 -8 2.6382694
-2.0812883 8 5.1011081
3.3305209 -8 6.5622921
-3.9450109 -1.8006747 8
7.023654 -2.0104995 0
2.8718867 0.11724307 17.791439
4.4295216 4.7881727 8
3.6280069 8 6.8910413
8 2.5754175 2.0500534
-8 6.0959477 1.8164372
0.38812709 6.0259075 0
-3.2050571 -8 7.7451253
0.99271077 8 1.4446348
-5 -3.930856 1.3707814
8 -0.2912004 2.8139114
2.1215632 -8 0.21710657
1.4660172 -2.1722765 15.572806
-1.5464413 0.043487199 19.554373
5 3.3620009 2.21086
-8 -5.7022223 2.8856201
-5 0.31671154 1.8174915
0.73430395 -2.7403097 17.916292
-1.4494512 7.9753084 0
-8 3.5935395 6.6276484
-7.3386226 -8 6.7296939
-2.4908304 -5 2.5465884
-5 -3.7418118 2.6429725
8 1.568614 4.1082716
6.1455431 -4.6996002 0
-4.2420597 0.81701958 8
-7.5671225 8 4.5888686
4.7589021 -8 7.2758393
-2.0788965 8 6.1631942
-2.6174173 8 5.16295
-4.5423393 -8 7.8288479
-8 -5.2272253 6.078723
-6.8692946 -8 2.6516724
6.8289399 8 1.9695616
-8 -6.348052 4.3573198
5 -3.1862998 1.5651056
-1.3703843 0.5858115 11.014769
3.9961498 -8 6.0416331
3.813695 6.2277117 10
-5 -3.9915745 1.7965083
3.6791999 -2.7690527 8
-5 -3.9668989 0.65111685
-3.4382553 -3.7237067 8
-0.18742919 -5 2.9859118
5 -4.8827109 5.2621436
-8 -6.6801686 5.16676
7.8966417 -4.0613451 0
-3.9448886 4.0192113 8
-5.4848819 1.3842245 10
-2.7643843 4.2986064 8
-8 -3.6470215 2.7422829
-2.4211099 5 1.1651422
-1.5209987 -0.29739812 14.441894
5.0858488 -8 5.373034
-3.2582431 0.90890753 8
-4.7998295 -1.1228194 8
-5.9744129 -8 0.96372247
-0.85429424 2.7848063 16.309929
5.9514999 8 5.8762002
-1.5215803 -2.9015715 8
2.7508078 -6.4547977 10
6.398808 -7.224421 10
-8 -7.275805 9.8097696
-0.46165878 -2.2183185 18.942638
-7.7413425 -8 1.6831281
-2.1416142 -2.0553863 16.698481
4.1657624 5 2.0654187
3.4754875 -5 0.030296326
-5 0.91553926 4.7965608
0.87318039 -1.7349936 8
0.1360296 8 2.3923647
-2.0574789 5 7.1763043
-1.4471483 -8 3.4043221
-3.9613867 -8 8.8810301
-2.3062668 -5 0.14499187
8 2.8098435 7.5865159
-3.7865903 -2.0685384 8
-6.380455 -8 6.5697393
3.0005991 7.5593519 10
-1.2958304 0.74395704 13.585394
6.6302786 -8 6.303709
-1.1606426 -5 7.6266379
-3.3868122 8 8.511034
-8 -0.35643876 8.2436008
5 2.0548587 5.1622467
-5.3695254 7.7242904 0
-7.9812579 7.3669753 10
4.4955487 -8 2.1734266
-2.2375333 0.46734267 8
-6.1460896 -8 4.4389772
-5 0.53158283 4.6881218
5 -3.4414456 0.72872007
4.0387058 -5 2.4117055
-4.0154572 6.1831765 0
5.8653679 -8 4.3777695
1.1777426 -0.91503692 10.349721
-8 4.3249569 0.94919455
4.4028611 -8 2.4081037
8 -7.8997097 5.889174
2.5331604 -5.0644932 10
-4.2940927 4.2412229 8
-3.4739881 -5.4953165 10
2.0620723 5 6.0552635
-1.8134594 -3.7770019 8
5 -0.6844213 0.21078922
-8 4.8796802 7.330986
-0.52636361 2.4777842 10
8 -7.8867164 9.4389791
4.41605 -8 5.5854735
-1.0099688 -8 3.5452945
-1.9352782 4.2765932 10
-4.066371 5 1.4096984
-7.0303392 8 1.0107092
2.580302 -5.4050198 0
3.3333111 -8 5.3156319
-8 -5.0766444 8.4705181
4.7518678 5 1.5544523
4.0397367 -5 1.4471197
-2.6170206 5 7.0504451
-0.66553557 -8 4.0575662
0.20085049 -5 5.6290803
6.1145706 8 7.1502967
0.033268929 5 5.7194581
1.1910837 2.0382288 15.158043
-8 7.1378765 2.941618
4.2156086 8 5.7964745
8 -6.5463161 9.4208164
2.5402079 -5 1.0128427
4.5423131 5 5.9104767
8 5.8983707 8.3026466
5.8790789 -8 5.7961688
3.848454 7.2412801 0
-3.0778079 -1.7545835 8
-3.5255413 -6.8759484 10
-5.3815708 8 9.2275
-7.8271894 3.1684771 10
5 -4.0997624 6.0444446
-2.6596308 8 9.1291237
-5 -2.3892775 3.6922793
-4.3039722 -5 2.3386815
-5 -4.1478548 7.0868902
0.45062327 2.3858843 18.728355
-1.2432644 -8 6.9731379
3.1071014 4.5889282 8
2.2790861 -5 5.0889063
8 0.40370917 9.0521679
2.4917014 -5 4.430306
4.9526634 5 6.2840838
-5 -3.2961183 3.3938999
-3.8251133 -8 3.1121459
-6.4711046 8 2.5347328
-4.1502709 -8 8.5165386
5 -3.0673223 6.0431061
-6.2436643 -7.5749669 10
-7.6910853 -3.9371934 9.999999
-8 3.6597958 2.1851642
-1.5035875 5 7.8849664
-6.3953514 8 3.4298143
-3.5020752 8 7.1334391
-5 0.87792528 1.2640934
0.74377036 -0.32952201 19.872116
-8 -5.819459 5.6447706
5 1.8068554 2.9751482
0.93608665 -4.9669433 8
-1.5819786 -2.1288145 18.355034
2.9041586 -3.632298 8
-3.1075726 8 8.6005335
-8 1.2336074 9.4935055
-0.58639669 7.536099 10
-2.8912141 -0.6612879 17.349579
8 7.0356731 9.7503147
3.3440053 -8 7.0301404
1.9756918 8 1.2652087
-2.9919832 5.9760299 0
0.72385693 7.0374017 0
7.7119093 -8 7.6890745
0.99624479 2.785517 17.424316
3.740674 -5 5.5191431
1.2882773 4.8827648 10
-6.2022724 -4.8868995 0
6.1324801 -5.6155066 10
-1.7134831 1.9220876 10
8 3.5745764 3.3433566
-8 5.0824704 0.46663201
5 3.8866928 6.0715618
-1.006887 -8 8.2863216
-4.0111961 -3.2561855 10
-5 -1.3761301 3.1984057
7.5866938 -8 8.1329832
-2.4643703 5 3.3247375
8 -3.8193491 5.7214861
-2.3793304 5.0951953 10
-8 -0.71061659 0.21540721
6.5445018 6.0321784 0
-5 -2.8507342 5.4202509
8 0.55162525 1.8874238
-8 7.746417 6.843123
6.3403444 -1.6051979 0
7.6250992 -8 5.379024
-2.9217567 -8 4.0404029
8 6.2381639 6.1346536
-2.9701054 3.4011285 8
-7.7036915 2.6741853 0
2.3296499 -5.2000227 0
8 1.8204365 1.1375226
-5.039783 -3.8274388 10
8 7.113513 9.6189318
8 3.3597021 1.1419063
-0.5196377 -2.1732025 15.028168
-1.7343197 -0.785043 8
-2.3741801 -8 6.1803284
-2.511441 5 4.5531654
6.4690347 -4.2522254 10
-8 -4.5975361 5.2477336
-3.6068583 -8 2.0228553
4.5147724 6.4349513 10
5 0.78127074 2.1506059
-0.47355652 -5 4.4385543
2.1978559 -1.8490477 17.790888
3.5604272 8 5.7445931
-8 -1.2368002 0.20327339
-6.5845604 -3.5552363 0
-8 -2.0215044 1.0075121
-2.717782 -5 4.3816185
2.010788 -8 8.6253185
-3.2923317 3.921771 8
-0.1453585 -1.4890633 10.267255
2.7965946 8 1.9493473
7.274539 -2.7064004 0
-4.7264152 8 0.11327028
-8 6.1369462 0.224557
-8 -3.6864738 7.0155983
-3.6243658 8 9.3675432
8 0.71820831 2.7712407
1.8644058 0.1307987 8
-6.5969143 -0.73388362 10
8 -6.92202 7.5020504
-0.81327033 -5 2.5957789
1.0381352 -8 5.6425781
-1.115994 -5 5.1272602
8 2.1370726 2.7379947
-1.2880645 -5 2.5578003
1.2051042 -8 5.1451073
-8 5.3370743 4.9685807
6.9251084 1.0804595 0
5 2.1420274 6.4904475
1.5335228 -8 1.359224
5.5263705 7.7710876 10
-2.7249858 -8 4.1387706
8 0.94136548 5.9110217
-8 7.7595196 6.9647164
-6.537569 -3.8157401 0
4.9211841 8 4.0559869
-3.5395477 5 4.9441004
8 7.339612 1.6822577
5 2.019418 1.1202612
-5.611177 3.7849813 0
4.3519068 -5.7907486 10
-1.5210514 8 5.9902844
8 -3.8342764 2.6919913
-1.5405473 -0.99118471 10
3.2042904 -8 7.048841
8 -2.554358 3.9456496
-2.7723789 -1.3999152 8
-5 -1.1275997 3.3129716
-2.2020075 1.8421707 16.197357
-5 -3.4234524 1.6533904
1.6921692 5 4.7059774
0.14326954 -3.5291762 8
-1.945148 3.7274165 10
8 -3.2358415 2.1437991
6.2028141 8 4.8198915
6.3195386 8 0.56782544
-5 2.8178635 0.69098568
-6.2284117 3.8817868 0
4.218616 -8 4.1762271
-6.0987272 -6.1339803 0
-5 4.9439383 6.6903954
-8 -6.4119172 9.9345865
-0.57919216 -5 7.9454179
-5.3740106 4.2149706 0
-2.7145343 -8 5.0415916
5.0546284 8 2.1473968
2.447794 6.6258297 0
-0.78355813 8 1.038568
8 7.4144764 0.3878392
0.9959929 -2.3543687 18.538181
2.797205 -0.98005939 16.675137
0.87220073 -5 5.231379
0.10536772 5 7.7481251
2.646637 5 3.1901078
0.87280238 -2.7359662 17.784916
-6.4376216 -5.9726634 10
-3.270124 -6.2313032 0
8 6.8992271 3.5755353
-0.7492758 -8 6.5879145
-0.32645178 -6.9623685 10
-0.48591137 8 9.215065
8 -4.977272 0.042298321
-4.0605025 -5 0.45281982
-1.2275488 -4.4485474 10
8 4.9054537 7.6514239
-6.7918119 -7.5991864 10
-6.9122467 2.448982 0
-8 -3.0475008 2.9868059
1.6430254 8 8.9509525
4.396409 -5 3.0843759
-6.3528066 0.97930431 0
5.7092071 1.1767917 10
3.5899615 7.3562441 10
4.4626875 3.3091004 10
-1.029248 1.0775338 10.213658
8 -4.7161875 8.6416779
7.2636023 4.6481495 0
2.7666721 -4.9358134 8
7.034286 6.9325476 10
-8 1.4433273 4.5683999
5.6919241 -8 3.2077296
-4.0902119 -6.4755373 0
-0.86402261 1.3798034 14.498075
4.4141393 -5.5566735 10
-7.9811134 -6.6020594 10
0.88453114 4.2013021 8
7.9900389 -3.0278435 0
8 7.7979679 2.8835394
8 0.13325119 1.5916457
-5 -4.6617756 3.7830596
1.6395917 -5.0534039 10
7.8345666 -5.0206852 0
-4.0587707 -6.1708231 10
-3.4894092 -4.7884564 8
-8 -2.1352766 5.2702065
-8 -6.9317722 4.696414
0.19061369 -3.0766716 10
-1.894937 0.50516242 19.246859
1.4335595 -8 9.3413906
5.8015161 0.9113456 0
8 6.2944746 0.37725571
-0.40939021 5 0.30094811
-0.11145784 1.4890633 11.997314
0.67424464 4.3731747 10
1.5847404 -3.0850868 10
0.7113874 1.9189788 14.824596
-8 -6.9213939 0.25300366
1.3989508 -8 9.029314
7.6401677 7.3043423 10
-0.37945381 1.4401008 11.264628
7.2737012 4.5117583 10
-0.40743482 2.2045527 10
2.8192041 2.5401373 10
-8 -7.3780055 0.043172933
5 3.5905967 2.996449
4.3027711 5 1.1204923
-8 -6.8012195 2.9981115
7.4567356 -8 4.8690515
-5.9068813 5.0633812 0
-5 -0.26910114 6.4036341
2.9028811 -7.2417808 0
-8 0.6447134 9.3849154
-8 2.5320647 0.64867735
-6.6921229 -2.7319188 0
-5.0335441 2.561537 0
4.0362058 -8 6.5014424
-7.1444025 8 3.9971347
-5 -3.9026718 7.6814184
3.6162474 -5 2.4713874
5 -3.2766721 1.872551
-4.289629 8 1.958921
-8 5.7732463 7.0937982
8 -7.9820299 1.5245138
5 1.4577641 3.5044913
1.294202 -1.6201519 19.149557
-5.6746626 -8 0.2161162
1.7649662 8 5.5272193
-4.392313 -5 7.1230445
3.4190609 8 2.0662642
8 2.6970472 3.5169034
-8 -4.1524677 1.5847152
-3.9864628 -3.4294021 8
5 -0.5957247 2.2252464
5 -0.58773541 0.85608989
-0.80025768 -2.7860317 8
-1.5245776 -8 5.3300614
2.237452 -8 4.5698562
-8 1.0029291 2.0855894
1.1304051 -2.4934168 15.797004
-6.3781166 -0.0014007092 10
5 0.19893992 5.0674529
0.24965858 4.1894708 8
2.3252902 5 1.1516329
-7.8540602 -7.1469202 0
-7.1877694 -6.7367592 10
3.5108204 -5 5.1023898
0.19992065 -0.21021152 8
-0.47910213 8 7.3292332
3.7477465 -5 4.657403
-5 1.5512543 6.3760366
-8 -7.3302603 4.5808134
2.9863729 6.7939672 10
-7.7144852 -7.3603592 0
1.4275893 -8 2.73265
-8 -0.22905314 8.5532112
-4.7054129 -8 6.8415594
8 2.3499603 9.7959452
-5 4.2908754 2.4274096
-0.8476457 -8 7.7721062
0.48467779 -7.7612405 0
1.3513594 -8 6.2433343
-6.7443032 -4.0722179 10
-5 -3.9638076 4.4880457
2.1453309 5.4433184 10
-1.5190685 2.3142743 8
2.8119845 5.2195878 0
3.424736 -6.1826091 10
3.7587643 -8 9.3271027
4.3456535 8 9.5800076
1.4796019 5 5.8465137
-5 -0.77175236 1.2773499
5 -2.6062362 7.87747
-8 0.28552544 3.4952114
-7.0294504 5.9282165 10
3.8482168 3.8874009 8
0.13307428 8 2.8549271
2.1030025 2.0495145 10
8 3.3519809 7.5310936
0.29093218 5 0.9773007
-0.8931433 1.198112 12.367399
5 -4.3109059 7.7129908
1.3701322 -0.6675027 10
5.772891 -0.11293828 0
-0.69967389 2.3264887 18.73543
0.28819644 1.4625937 10.212864
-0.36559963 -5 4.7373857
-7.9268599 -3.8025904 0
3.8451562 5.3764582 10
-8 -7.1190701 2.3506405
-0.32085913 5 6.7794662
-0.99539614 -8 7.0313826
0.4977459 -2.7690444 10
0.37652731 -7.3195333 10
-1.7433568 1.4229193 15.043774
-1.40784 0.48704904 10.303922
-4.1977849 8 2.0185776
8 -5.3843808 8.544076
8 -0.29995298 8.2862864
2.8539162 -7.5609884 0
-5 -1.9163489 3.1705723
3.8980718 -8 7.4752674
7.6621132 -4.5249596 0
8 -7.8648601 8.6729784
-7.5781794 8 2.8717046
2.843657 -8 7.8309388
-4.7968864 5 0.7113716
5 1.9503773 0.85219175
1.21575 7.0558357 10
-8 2.8144677 8.5429039
2.2480927 -0.85905886 18.760059
-0.97075939 8 2.1519721
4.7855191 8 5.9966254
-1.1932428 -8 8.8956223
