# .PCD v0.7 - Point Cloud Data file format
VERSION 0.7
FIELDS x y z
SIZE 4 4 4
TYPE F F F
COUNT 1 1 1
WIDTH 1906
HEIGHT 1
VIEWPOINT 0 0 0 1 0 0 0
POINTS 1906
DATA ascii
5 0.78057671 5.0546322
0.042225838 -5 2.8407459
-5 -2.8101254 3.7855563
8 3.3410397 9.2978306
8 1.7408323 8.0333204
-2.6692562 -1.737807 10.895866
-3.3770013 5 6.2690248
1.7328339 -8 0.87641841
-1.6472216 7.2390594 10
-1.2280842 1.6439579 10
-0.21438551 -6.6683345 10
-3.1835818 -0.13505693 14.992261
-6.1217933 2.4833527 0
-3.9762475 1.398187 17.643791
5 0.75359219 7.108695
8 1.2532825 1.6364453
5 4.6660261 2.5948102
8 -7.0472288 5.89925
1.8861156 8 3.5227656
3.0285525 0.98182148 12.496698
5 0.97244596 1.8823082
0.9261775 8 4.4894361
0.98247623 8 1.7357808
-0.25576848 -3.18154 12.164644
-0.18249726 5.5415382 0
1.0896283 2.2381349 10.498459
-7.9496331 -1.4736638 10
3.321645 -8 9.2868433
2.2644365 -7.2915125 10
3.6100225 2.9870601 8
-5.4247971 -8 6.8625116
3.7952933 3.1872945 8
3.0806935 -5 5.9584589
-3.2065754 7.1275005 10
-2.0376053 -1.4346883 16.403065
0.43034881 -3.1658483 16.39015
8 -0.091650009 2.0413685
8 1.833765 1.6930035
5 -1.317993 3.4443212
-6.3279676 4.066433 0
8 4.7427349 5.3618402
6.1265831 -0.16628408 10
4.6870432 8 5.9553666
-8 -6.7032638 6.0009155
2.3343682 -5.7133465 10
-4.5263062 -5 1.883369
5 -2.268429 2.7620399
-5.2980151 -8 9.3534737
-0.17796183 6.9322548 0
-0.040730063 4.1273618 19.48176
1.7487569 -8 2.8304563
2.6048462 5 6.5962853
4.4040847 -1.8048048 10
5 -4.106791 0.4736416
0.4706912 -4.7060471 8
-8 5.5879221 9.9469681
-7.023982 -4.1710215 10
-4.4636383 -5 1.2700746
8 -1.4082754 8.3695393
-1.3143022 2.1171923 14.690701
0.55738807 1.3971505 18.441822
8 -3.0272958 2.6222651
1.1705451 2.9717832 13.077261
-0.041099738 3.8509359 17.267145
2.8063483 -5.4007611 0
-7.7221518 8 1.4452469
7.6984777 1.0344756 10
7.8647327 -4.2134809 0
0.062856376 -3.1844854 16.59407
-4.6447577 4.7877617 10
-0.67512965 2.1712575 10
-4.2578411 -8 8.9948921
0.049240887 -0.72246057 10
3.1761105 -2.4615777 17.4165
-5 -4.9141188 1.7251053
-4.2211833 -1.5513389 18.487839
-1.2665138 -0.90962356 18.086458
3.4650493 -0.51368046 17.095589
-1.0816586 -2.9943054 15.296904
-5 1.5107986 2.3856153
0.031404965 2.4854751 13.740409
-2.8494105 1.4329536 16.736244
-4.753212 8 5.4778309
2.0132031 -7.2560468 0
8 -6.6961231 7.5072846
8 -4.5781012 2.6162038
8 6.6078787 3.8307078
-2.9104395 -5 2.0990264
-1.432637 3.0223227 17.051418
-3.2124774 8 0.92330575
-6.9102201 -4.4583797 10
8 2.0402975 5.5994272
8 -0.73566067 5.9354954
-1.7184641 1.8150258 14.469936
-2.0850039 2.4104586 11.385781
-1.041888 -4.9835377 8
-8 2.6658545 8.0373659
8 1.1870852 2.6134188
2.7351274 1.6322461 15.475143
-1.4000849 1.9582788 8
-3.1835818 0.082364455 11.186275
-0.75794482 -3.4681315 8
1.7836144 5 4.2107835
5.1655793 -4.0772262 10
2.8741634 -5.8260708 10
1.9470079 8 7.4343915
0.5461998 8 9.8500843
2.3392286 3.7145741 10
-5 0.21087217 5.5702896
3.0150309 -7.7720299 10
5 -0.32982883 3.0743208
-2.1431494 1.2653937 13.112573
-3.1835818 -0.11143738 12.850283
-1.4667563 -0.11846051 10
8 -1.4119215 4.592627
2.0458384 -5 3.8928061
-8 5.3940363 6.2182913
-0.95356601 2.2929327 13.903533
-1.3766999 -7.2862282 10
-2.4435096 -5 1.2833967
8 -1.5587267 7.4402103
5.9192982 -8 5.084054
-1.4628572 3.8402455 17.497372
6.9147725 -7.5677996 10
1.6522939 -6.0490208 0
-2.136816 3.3412027 8
-6.2554216 -6.334239 0
3.8866878 6.441215 10
5 -0.20685613 5.2993994
8 -2.4186306 3.2053013
-5.0263262 8 4.7288699
-2.4552453 -0.40774298 12.413023
2.2145984 4.3509645 10
5 2.2548809 1.5139455
2.4669104 0.28309968 12.369307
-8 5.8737688 1.460094
2.6281981 -7.4297023 0
-5.5000939 -4.6790743 0
-1.3085304 -8 6.3393145
-6.4825482 -0.46634114 0
6.9968767 8 4.9763298
-5 -0.77205014 4.1448736
-2.3091021 -5.8669958 0
2.5743582 7.4605026 10
-1.5752181 -1.9229476 11.012568
4.5199404 8 6.3979788
1.6315092 4.3143344 8
-0.29241729 -3.1759253 10.273007
8 -3.1513937 0.57567412
4.2633867 1.2528924 18.162239
-1.4358203 -5.1502633 10
-7.1327429 1.284236 0
-6.4978843 -7.8859925 10
5.0000005 3.3351319 1.529978
1.5182962 1.0278833 10
8 -4.7795057 6.2639651
2.3239038 -8 0.45856276
7.2234745 -4.2716913 10
-8 7.3305035 3.8094084
-4.9221969 6.2175703 10
3.4159908 -5.9952517 10
-1.5233259 2.8018775 13.798409
0.75424433 -8 9.4456158
-1.2481029 -8 7.7761369
-1.2608681 -6.0665379 10
8 -2.3297997 2.8770216
-4.8607945 0.11020041 8
5 2.8741398 5.5074272
8 1.6741385 9.0961056
3.6337645 5.3745389 0
3.8170862 1.6320096 17.545307
2.1525455 -1.2459674 11.488661
8 0.23233616 6.709877
2.2079983 -1.1616555 15.109819
-3.01264 -7.8225422 0
4.2810025 -1.3386744 18.515919
-1.4591159 -5 3.8416309
2.547647 -5 5.0682535
-5.0042992 8 3.1096931
-6.8084116 5.1550303 10
-8 3.917521 9.4352474
3.5546281 1.0449839 10
-3.9121666 2.098141 18.820766
8 0.19118381 9.4198647
5 -3.5450237 6.8525739
8 -0.56811595 6.7461281
8 1.134511 0.030010968
4.9767065 -5 7.8664713
-1.6773348 8 8.7912331
8 4.4071302 6.8864551
-2.3114433 8 1.7196113
-1.2109038 -8 3.515866
8 5.872714 8.619792
8 -5.4292359 6.5702009
4.1747108 -5.1558161 0
-4.1458979 -6.4403896 0
-8 -7.7914696 0.025480703
-8 -4.8630891 0.023007475
2.0510607 -8 9.9503965
1.5016961 -1.9970058 12.311925
-1.9024384 -0.89760011 8
-3.1139922 -0.66236615 10.267159
-7.2014437 -0.65409756 10
-4.3254561 -5.5249372 10
-1.7164867 -2.6814795 15.087589
-2.0276203 2.4650059 11.061668
-5.5076442 -7.8921504 10
-4.1658678 4.0613451 10
-4.12568 4.5406332 10
-5 -4.1190844 0.68224955
-5 3.2046278 7.3792963
0.1268394 -7.5635843 10
-4.0521607 1.8323154 18.199675
-8 -6.3990002 8.6789675
2.4938488 -1.9825121 13.159182
-8 -5.629046 9.5052414
-8 -1.9495885 4.2617764
-8 3.9463787 4.2659988
0.54594564 -5 1.0907898
1.1069494 -6.0370493 10
5.7169533 8 8.6096144
-4.3039498 4.5046282 10
3.947475 -8 0.49323875
4.3163252 8 6.0994425
-4.2307348 5.7073178 0
3.9788456 -3.1660678 8
-8 7.6617227 9.1340981
-2.2333536 -0.53153729 17.17955
8 -5.7402229 3.8028312
-8 0.64950752 9.2609568
-0.85683036 -7.4272289 0
-4.9421234 6.0613327 0
-2.8508205 5 0.038559642
0.37632346 3.1685882 10.175372
4.9368572 3.4377079 10
-8 -2.3781998 5.1229901
0.36862803 -2.6337342 8
-2.6380937 2.8752511 8
0.6150735 -4.0801115 10
8 6.2927399 8.1314373
-8 -6.9611988 4.5454688
-5 0.24935192 1.5957971
3.0276976 0.98454535 12.641549
-1.9513564 -2.5350838 15.419924
1.1491194 -5 6.8381882
1.3812504 2.8684278 14.130791
5.3317609 -6.8874674 10
0.99260509 1.4067775 8
7.1676812 8 5.5395555
-5.0440187 8 9.3038006
2.1148162 -3.792237 10
1.2674651 -7.5672307 0
-8 -5.6840701 9.609334
-3.005477 8 3.9740834
2.3308377 2.1723971 14.131044
-2.5056608 5.9783535 10
-8 -7.3205347 0.74992299
-5.8760729 -3.1578274 10
-5 -1.5322323 7.1236691
5 -2.6167965 3.560282
-5 -4.4656734 1.1930914
-2.9957106 5 2.8147905
8 -5.602922 7.2630281
-2.1736693 -5 7.0064464
0.55139506 -3.5938344 17.151098
-8 -1.8629284 5.1825409
1.9922588 2.4837742 13.953259
-2.7402599 -8 7.6787429
-5 -0.3981142 6.8666306
5.5178347 8 0.2504307
-5 1.8626394 1.7830596
5 -1.1098545 4.9217777
4.4553099 -8 9.5663052
8 0.70369148 7.6782618
-0.036989212 8 3.5686011
7.4402838 8 2.9496522
-8 -6.3612766 2.6130698
1.7705529 2.8518651 17.054165
-5.7974501 2.9816227 0
-8 -7.1534977 3.6766315
-3.7172093 1.0290221 10
6.5581732 -8 6.2332716
7.4621539 -8 7.7734942
3.8782606 8 5.9990382
-8 -2.5492029 0.40221033
3.3441257 -0.28701377 17.05829
-1.4628159 -0.84156859 8
-3.9976552 1.5289741 10
7.5541902 4.4101405 10
-2.0787263 -7.7599502 0
-1.1775364 -2.958796 14.485504
6.9608059 8 2.932291
3.4899645 5.5932922 0
8 7.4619532 8.7904797
1.7938722 -8 5.8424978
2.8058822 -8 8.5862656
4.9999995 -1.9015508 6.0876522
-6.4250774 8 8.0487356
-2.3704736 -3.602221 10.000001
1.5754256 4.9656715 8
-5 4.9473562 3.1262412
7.7081585 -0.12867641 10
1.0832552 8 1.5344781
-8 -4.9421911 4.299211
0.68721008 2.3862495 12.356748
-2.9272499 8 4.0365362
1.9161811 2.5426626 14.852449
1.1972334 -5 2.1348214
7.533339 -1.4110048 0
-3.6275277 8 2.6127994
1.5693822 8 5.870419
-1.1502767 -5 4.3746605
-0.15133666 3.195348 11.239023
5.7535896 -8 7.1227813
8 -1.8842149 5.5405817
-4.2229929 1.5246439 18.575424
-8 -6.5131359 7.8418927
1.5333916 5 1.4542314
-5.3564954 5.3325543 10
-4.8478742 3.3665032 8
1.0541098 3.9854877 17.527351
-3.9356973 5 1.5873226
-8 -6.2118945 7.8991766
-8 6.2161975 7.3658462
2.0686257 6.6444592 10
-5 -2.4040408 4.5278368
2.4623201 -2.0192385 13.545161
4.1885509 -5 7.6704354
-0.57626915 8 5.8160381
5 2.4620788 2.7118852
-5 4.6242647 4.86763
5 1.9017911 6.7450652
-4.1850104 6.9266696 10
-5.8431907 8 1.1328244
-6.0072885 6.8844204 10
1.6353428 5 3.6698806
0.59637642 8 8.4622021
2.3360662 2.1663065 10.306922
-8 0.0042643547 5.202631
-0.74418873 -3.5720515 9.999999
8 -7.965023 2.0453892
1.1325142 -8 1.7225268
1.4947013 5 3.1335258
-8 -3.1382689 2.4273775
-1.9827666 -1.5000423 11.535108
7.4275327 -5.659421 10
-5 -4.6398392 4.5508733
-5.833549 8 1.3360733
-1.7533906 -1.7734019 14.657688
1.6154257 -1.8897076 11.512117
-8 6.7594872 7.0480261
-8 -2.1006794 2.2488694
5 0.67494583 1.0404381
6.9684753 -1.5561178 10
8 3.1126194 5.3874502
5 1.7293322 6.7071381
2.1431377 -2.3669848 12.884776
-5 -0.56822836 1.5113955
-5 -2.1595504 1.5830312
-1.884634 -0.57998157 19.585903
-4.228981 7.8103156 10
-2.0313818 -8 1.7331861
-1.8682232 8 5.4976397
-5.1253881 -8 7.6981764
-2.48245 -3.1093197 8
-5 3.7819042 7.6620822
-7.1514654 -0.092742205 10
-8 -6.5266671 0.9629277
3.0710776 -0.8462835 11.281281
2.0347836 1.4250157 16.045929
-7.4791012 -3.9395337 0
1.5863781 6.74821 0
7.5925484 0.91106582 10
8 2.1798878 2.6580808
-6.7981606 1.6178203 10
8 -4.1505542 2.8729141
6.1943531 -3.6518383 0
2.2443717 5 1.4086901
5 -1.4400489 7.136982
-4.0371614 8 1.3866597
8 -2.3150117 2.3476727
1.5178664 8 2.5101333
-1.8551544 5 1.5774027
1.392138 -2.8630869 16.355537
-0.86156887 -0.37397516 10
8 -5.4265976 0.57765228
5 -1.4078282 2.6777704
2.394763 8 5.1453791
0.41828135 -2.4629419 13.325307
6.2007957 2.9005399 10
2.6331329 -8 5.3431869
2.660728 5 0.10548029
6.320056 -5.3860583 10
-8 1.8585443 6.2044363
-6.4759474 0.60168052 10
-4.2233829 -5 4.613553
-8 -7.7254119 7.5930395
1.1402186 -2.986659 15.291878
5.0031919 8 0.83460331
2.6756592 -3.0987484 17.482262
-8 -6.6854982 3.7862074
8 7.1152458 2.6267745
-2.3332815 -6.8318548 0
-3.7948687 -8 4.9911962
-1.5972228 -8 1.0528646
-5 -0.57708931 6.9434175
4.6149392 5.4445233 10
-5.2706623 7.2078366 10
8 -2.3357573 0.075078227
4.2614431 -5 0.24485588
7.5913372 -8 0.90798599
-3.0041122 8 3.8927495
-5 4.3761826 2.7079813
5 4.520618 0.84029698
4.999351 6.227632 10
-8 -2.7638953 2.082864
5 -0.20907383 3.9951952
-8 3.6182268 1.2773809
-1.888869 6.318141 10
6.4058371 2.0427747 10
3.9024169 8 3.5435896
8 4.1372046 8.8631697
-5 1.1876483 6.7565107
-0.66932648 -3.99805 19.554605
8 0.42600346 4.7178288
8 -1.9939474 8.1684151
5 -3.6210461 0.64922196
-1.7379117 -4.1362433 10
-2.0981181 -2.3979928 13.457623
-0.95012152 2.0898013 10
-6.0022888 8 2.3066683
-4.3765526 5 4.2174878
-5 4.4972591 2.4126506
-5.2825232 0.53290844 0
-4.8978896 -8 5.3166494
-8 5.4340601 8.8634434
5 4.9657741 5.7963152
-5.8926792 8 1.813816
-1.9806231 -8 5.4861646
3.1420059 0.57030249 13.227272
1.5794741 -4.070425 10
-7.6663575 -1.1097496 0
6.1543131 -6.6088886 10
8 -1.964052 6.961997
-0.70488667 -1.7271512 17.520641
8 0.067547679 6.9383078
8 1.7743149 0.89895004
7.5441208 -6.2019763 0
8 -5.0088634 2.6176775
-1.7689335 1.8519418 8
-2.9727273 -1.1455917 11.307219
-2.6941414 -3.1273992 10
-8 5.1194777 3.6363723
5 -3.8000813 6.2749329
6.1741042 -5.1173301 10
5.0279427 -8 2.7659132
-1.3747952 5 1.4809673
-2.3063624 -3.8048856 18.827612
-3.3740182 0.028709605 17.060499
2.0113158 -0.43219948 10
8 -3.0124891 1.3060395
-5 -2.6350751 3.8589911
-6.1163979 2.6862307 10
0.77274752 1.3501329 18.100866
-8 -5.6660309 5.433527
3.994844 -1.2385961 17.605249
1.9231091 7.6855869 10
-0.85298395 2.3363194 11.27668
8 6.8517723 8.7626295
2.8312418 -3.4623008 18.309868
0.73932636 -3.0971375 14.844206
-1.6904972 -1.8371255 10.080616
-0.42681384 7.9117837 0
1.7956669 7.8752098 10
3.3646493 5 2.3249116
-8 4.5078306 7.8030667
8 -1.3708169 9.7867956
4.9359479 -5 4.8261881
-1.2947812 2.1317253 12.191865
-2.0004826 -0.30960107 17.368898
-7.9982309 8 0.90408289
4.937767 4.0114145 8
-5 -2.7616677 2.7401323
5 1.0397925 6.3469434
-3.1546471 5 5.0400076
-4.8865223 -8 6.5790434
3.1821721 1.5867945 19.888575
2.9251342 2.5177672 8
2.5000577 -3.713057 18.591997
4.2726798 5 5.1522336
8 6.772891 0.93486601
2.6754651 -1.739737 16.487503
1.8682249 -5 3.1923199
-8 4.4265771 0.39586407
8 0.037511051 5.8475761
-7.7609763 -7.8439584 10
-0.17794691 -2.4900248 10.458998
-1.1723254 0.14056462 8
-0.28966978 2.0201752 19.64447
-1.7548397 -2.6575737 14.049114
-5 -0.043636382 0.44071054
3.3582442 5 4.2319269
-3.3853989 2.5981636 8
1.1630173 8 8.5776138
8 -1.1620629 5.8790197
-8 -0.51644516 9.6638956
-8 -1.3393756 3.4759641
-1.9868307 1.4951987 16.330421
8 1.2593942 8.2134533
1.4933033 -5 5.6425261
-6.0746098 8 1.6652812
-0.2071898 3.368304 19.938522
1.2717018 -8 1.8514758
5 3.9490523 6.8300257
-7.383153 2.8098681 0
-0.11992818 -4.3973489 19.003185
-6.9172735 3.3349781 0
4.5652595 5 4.1328397
-1.0359371 1.2714064 17.886143
-5 0.65819061 2.1532125
3.0879288 2.5650575 17.410057
3.8402071 3.1869211 8
-5.1471848 0.17112029 0
5.8542566 -8 6.5650911
0.3680461 2.4658678 10.475761
-2.529382 -1.9387695 10.32296
-8 -7.5274696 5.3947473
-5.6145754 7.7648063 0
8 -4.7149196 2.4229228
-5.4681497 -5.5410891 10
2.0375662 1.4207851 11.558966
8 -0.19463372 2.0702868
0.777542 -3.0872426 11.449398
-8 7.3741369 8.0651751
3.8263943 2.4685156 10
-0.50057989 3.1440363 14.116556
6.5750895 8 4.692667
-5.6166964 8 3.3029528
5 0.75007045 3.9557025
0.53663105 -2.4313297 13.822166
-1.0131221 -5 3.6404064
3.0917623 8 0.75220406
-1.2490731 5 0.20232624
-8 -0.89689827 6.5652776
-8 -0.066689968 2.7616856
-8 4.9804516 2.562124
-0.037324116 1.9675347 19.576664
-8 0.61394942 9.2536154
3.2590756 -3.9187012 10
1.8930407 -6.3615828 0
3.6264911 -8 1.7935963
6.1036282 -0.52419782 10
8 -0.45334744 9.367631
8 1.7003851 1.89647
4.7735734 3.7519264 10
8 -6.7816443 4.3999228
2.7237298 -8 2.0258121
0.25963226 2.4721823 15.14956
-2.3190448 -2.1879861 16.706392
-7.9161777 8 5.7866449
-3.0624249 -0.91329443 14.753952
6.1633987 2.1273413 10
-0.54424912 -5 0.61808872
2.6323333 1.8174461 12.850969
0.078663692 1.7480513 19.316711
-3.9340391 2.0535574 18.125719
-1.7800667 0.51546359 19.473167
8 -5.7452025 7.7879629
-8 7.7186508 8.0533609
-8 -4.5517936 2.2259555
-5 -4.4134941 1.4804821
6.7368126 3.1319957 0
5 -3.2402487 4.5783758
2.4784346 8 8.5761728
6.1420674 8 0.044693947
3.4340019 -5 0.91287279
7.5067925 1.2684073 0
8 -4.3481421 7.4751129
-1.3355963 4.0970154 19.222637
2.7187829 -3.553355 18.659203
4.7337637 -3.6923084 8
0.69625056 -2.4000337 19.91095
6.3716021 8 6.6964107
8 -3.424428 6.165072
0.091294169 -8 8.6928005
-7.3555121 -1.5168796 10
5.2792253 -3.2175825 0
4.160121 5 4.4038644
-7.0094471 0.73554182 10
-6.7025938 -5.3077874 0
3.0973306 -0.7626093 16.173006
8 7.6642275 9.7497644
5.7931185 3.4587207 10
8 -0.061000466 5.9924293
2.3001065 0.94059587 14.972487
1.2648833 8 8.9187193
-0.015748538 -3.1884718 13.58439
8 1.6492996 0.20789187
3.1491101 -0.50044078 15.161135
-1.7145325 1.8192319 13.344033
-5 -0.67435706 1.8615112
5.321075 -7.4982429 10
0.76745534 -7.4811497 10
-6.0419426 8 6.4071965
-3.8320518 1.0883503 19.604836
-7.0867038 5.1235185 10
-2.4830959 -0.034546651 15.394952
-3.1695392 0.39206982 14.773306
-5 -2.7733986 1.3096681
-1.863414 -1.6422813 15.569528
8 -0.35355258 9.1593885
-8 3.0171161 7.6661081
3.1394145 -0.5957849 16.01985
-7.8901935 0.83202457 0
-2.1259549 1.2996311 15.316025
8 1.9795322 4.4242511
-0.048040867 6.9920073 10
8 7.8136787 4.4315381
2.7471452 -8 7.8815308
3.2092988 5.428091 0
1.5833549 -5 5.6286211
8 -2.9548736 8.7744169
-0.4343788 6.4662991 0
-0.53644627 3.1385417 14.673563
8 -2.1387882 9.8394241
0.37956095 -8 8.0206718
4.1692553 -2.3776982 8
1.8536301 6.072813 10
-5 -2.8017848 2.3643136
-3.3140037 -1.9005395 17.252684
-2.9902825 -1.1046833 11.542035
4.1364727 5 2.3660939
8 4.2022457 0.11391417
-8 -6.7635489 4.1278811
3.2616718 0.50700456 8
2.8787675 3.4514055 18.460945
-5.5774336 -8 8.2960777
4.4452181 2.984426 8
2.7073717 1.6822526 11.838816
0.86834955 -2.491478 8
3.0273485 5 7.8424273
0.6696772 2.2433429 8
-8 -1.8452067 4.2329235
-8 -7.4006896 4.7316709
-7.0128684 5.2682047 10
2.2310519 -2.2886336 13.117995
-0.27739 -3.1782274 16.658697
-5.645772 3.0225215 0
8 -0.23045421 8.0851297
3.3418756 5.2436843 10
4.9228783 5 2.6732929
2.4825373 0.14940445 12.055356
-7.2109981 -7.5788131 10
-3.7966638 -2.8209004 10
-7.450407 0.10046029 10
-8 -5.7398596 0.8179059
-2.8828912 1.3549345 16.454586
0.066325709 4.2977281 19.233372
-8 -3.4390035 5.965014
-3.5809975 5 5.8755803
-4.5850439 -0.021458864 8
-0.17490625 -4.337863 8
3.1930754 -0.068095684 12.06792
8 3.797678 9.1856461
-5 -3.0657482 0.31514835
4.6789789 3.8469977 8
0.28178251 -2.4708922 12.449177
-8 -4.2811975 6.561595
-8 -0.042963982 7.0040936
-1.1162906 -2.9814789 16.108068
2.7767887 8 8.5146284
-3.2704508 3.7316415 10
0.69438004 -8 7.4955826
1.7665133 0.66598296 10
-0.19644465 -4.3478613 19.128345
-1.624274 -8 1.4566281
2.4180152 4.6132135 10
5 3.3598881 5.9352322
-8 -4.5892143 7.9098282
-3.0435929 5 3.3825567
-8 3.8178 4.7256908
1.3160213 2.9004238 10.653677
-7.7471046 8 1.8667361
-5 4.8238506 2.0360904
1.6657116 -2.7288926 10.501637
1.2042609 6.5055871 0
-7.9946136 1.9221547 10
3.1728671 -0.26681969 10.509114
-7.4272451 8 2.0840409
-5 -1.9866335 1.2622972
2.9745188 3.1538303 10
-3.427881 0.98210835 8
-2.2423909 6.3191247 0
-3.1132371 0.66604 14.54359
4.2934427 -0.4884578 8
4.3422742 0.99328613 18.237389
0.6475327 8 2.5841422
5.0872469 8 6.2053256
2.1900883 -0.7537542 8
-8 -7.2412701 3.9932082
1.0694413 -7.7504106 0
6.9045734 8 5.9641685
-8 5.9457006 6.4510312
5 1.0172303 3.6426532
4.1633148 8 9.9735851
4.2612019 1.5451282 8
1.477205 8 9.3608637
-0.15041134 2.49488 12.251288
-2.4726562 7.1148639 0
1.2149482 -2.9096031 8
-2.3192871 0.91467476 17.067636
-2.5541794 4.5140076 8
-8 6.7895861 2.4498863
-4.7429714 -3.7266495 8
0.77164328 2.3609717 17.002937
1.5018653 -1.9968462 15.909115
-7.8430014 -1.6299095 10
2.9992046 -8 2.7669339
-8 4.4354239 8.9041691
1.8993555 -2.5556865 11.368122
-7.8215642 -4.3315535 10
-7.5691886 -2.0787034 10
-0.33055329 -5.4761853 0
-5.4613791 -4.8765879 10
-1.6799088 -8 4.9787421
5.8486176 4.6677775 10
-8 -1.3954769 6.6255751
-3.2413993 -8 0.21564044
-5 0.89600861 1.8185949
8 -5.2582817 7.5440044
1.2263659 5 5.1494684
-0.82670176 1.0634903 8
1.4849339 2.0099051 15.366425
1.031918 7.4665184 10
-5.0131054 3.0285931 10
-2.5671995 6.4954615 0
4.1326213 -5 1.710403
-0.68256092 8 1.4504141
1.8957615 -5.7422171 10
-8 -0.97388268 3.8272111
7.4475594 -5.0969901 0
8 3.1754913 3.336024
-1.071774 2.2419426 12.148613
1.110659 1.2308608 17.835884
4.3850098 -8 9.3151331
-3.0145662 1.0480957 13.120621
-2.813921 -4.8697677 10
-6.369998 -1.3503702 0
-8 1.3576319 3.4017117
1.9637952 -4.2344909 10
-5 -4.9846964 6.0700798
8 3.7599993 3.6323798
0.5939939 2.4141564 10.316847
8 -2.1208344 7.2417011
4.63304 -3.2875404 10
6.1772909 -4.5887804 0
2.9444456 4.8238969 10
8 -7.5306845 1.2282345
-2.662837 1.7470294 10.564426
-8 -6.923214 3.1785276
-5.3809767 0.99261451 0
-0.39066362 -7.7191367 0
-0.023361132 -4.1281166 19.473415
-2.7465932 -1.1426961 8
5.7826514 -5.842876 0
-1.1953824 2.1034749 8
-0.73334223 3.1083784 11.434772
3.5839796 8 5.9808683
-6.00811 8 5.9047165
0.24146277 2.4732404 13.017846
5.6739283 4.7404327 10
-1.9366949 6.4910855 0
2.2056313 -4.5420732 10
1.2679045 2.924026 12.859339
0.51777273 8 1.305787
2.2997868 -2.2085671 11.65234
-8 5.3409133 2.7072747
1.5706437 -0.62907696 19.226219
2.6002307 1.8585916 13.411071
2.5716515 -8 5.7884331
5 -4.210968 0.44327182
5.7374077 -8 5.3908157
-1.1424437 5 1.8660414
-2.9154477 1.2790692 16.72727
-5.9187865 -8 7.7191286
0.77276945 -5 6.0770555
2.2606657 -5 4.4783316
7.3855481 8 7.2827778
-8 -7.7324305 8.0037556
-5 3.6000443 7.0631409
-0.96280831 1.168625 10
2.4125214 -2.0772471 11.582788
-2.3892086 3.4632511 17.640881
8 -2.4072189 3.6335473
-0.79085398 3.0995677 14.536838
7.3585205 6.1942935 0
2.011384 -0.25168073 8
8 6.2043295 3.5209248
-3.0266614 -1.0199101 10.487398
-5 2.0086675 6.7485976
8 -5.225666 4.7617264
-7.8808722 4.329 0
5 -3.0158916 5.8258386
-2.0999522 3.0433998 17.188574
2.8184931 -8 9.8191338
6.7464876 -8 5.4309435
7.1016836 1.665359 10
-1.6853983 -2.7008572 11.081807
2.0502033 1.4015715 12.975187
-2.2883785 -0.97621912 11.761393
3.2894964 5 4.1277533
-8 -2.1015081 2.9365087
2.643146 1.296998 8
-8 -2.6070118 6.1313438
2.7896132 -4.4479084 10
1.062114 -3.013562 11.497174
-4.1874971 -5 1.6766198
-0.56854892 8 3.7362285
5 0.28071272 4.6455045
-0.99628961 -2.2745032 16.455059
3.2404666 5 0.82835424
-8 5.5887642 1.4200889
6.923696 8 0.29687762
8 -6.2879009 0.47645691
-8 0.014293432 5.1777601
-0.40434995 -3.1587782 10.600363
7.1844945 -0.54501349 0
3.1398933 -0.59107673 11.720416
7.2441044 2.8134849 0
-5 2.4078517 4.9119248
-3.561636 -0.74100673 17.155098
1.0830622 5.5888915 0
-2.5876071 3.6431801 18.618156
-2.4377046 -0.481754 10.971471
-0.84515357 5.1631422 0
-5.4586892 -2.9164357 0
-2.4398711 -0.47261265 16.401922
2.9726124 -5.1902881 0
-5.6666508 4.5344949 10
-5.2063885 2.4255648 0
3.1544025 -0.76985651 8
-1.764582 5.1976638 0
-8 -7.5543194 0.69040388
-5 0.14948775 0.05385828
-5.9004316 1.0556537 10
2.3134027 -8 5.4354539
-0.89018124 4.300736 17.978848
-8 -5.5349727 4.4633703
1.982142 -8 2.8137076
1.0107796 5 4.0751023
-4.3269749 0.95916599 18.890324
-2.3632562 -5.2086425 0
1.6017692 7.5712562 10
-0.95393389 3.0416093 10.538157
4.9008098 -8 1.2837218
-3.2847295 2.5421948 17.569294
5.3453403 7.8250761 10
3.8842468 5 1.3536699
2.1228635 -8 0.75416082
-1.3637739 -5 0.22372627
2.7438738 -8 6.0642829
6.6600933 1.6974397 10
-4.1397052 -6.3972983 0
-2.5295048 -1.9385931 16.001373
3.2269053 2.0224066 17.245462
7.4209919 -7.5491104 0
-2.0811684 3.9564111 18.27462
-8 7.3988662 9.2813797
-3.4554522 -5.091485 0
-7.5848012 -4.8656616 10
0.66232902 -4.0536075 19.507126
-7.7148385 4.8204246 10
5 3.212786 5.4755263
-3.457937 -7.8360081 0
2.0557389 -0.7638936 17.237864
-0.80575335 -3.0964892 13.174843
-3.400672 -7.1421986 0
3.0103135 -1.6777906 10
-7.531538 -3.0495524 10
5.7731233 -7.5924792 0
8 0.95780921 7.3393722
8 7.4312181 7.0351744
5.0000005 -3.3983841 5.1929011
8 -4.3089638 0.65612608
5.2041311 8 0.11330426
2.4446247 8 2.710253
-3.6140966 5.0309381 10
6.4023614 -4.3372297 0
-2.6126564 -1.8191261 12.234549
4.5069218 -4.9999995 0.55020618
8 -0.82608151 8.3842831
-1.9611185 5.0483098 10
-1.3351034 -1.7981701 17.207632
-5.254324 -8 2.7387147
-1.6935223 -5.6399693 0
-0.27854306 3.1780508 11.951617
-8 4.7785115 9.7860956
-5 -4.778862 2.890974
-6.5330677 -1.2567598 0
-5 -2.0974045 1.6571898
1.1052464 -5 7.1840477
-3.0616901 6.9470191 0
6.4201307 -8 4.3325238
6.4225898 4.7511854 0
-4.2026134 -0.71136904 17.709261
-0.79192662 -8 6.430294
-8 -0.22889757 1.7797004
-1.2900783 -3.7569001 8
-0.28253099 2.1975899 19.772316
-7.0681467 5.4483733 0
5 -1.2875307 4.5017271
8 0.90917873 4.1768827
-8 -7.6591582 6.4271903
-2.6500349 -5.5592957 10
8 -4.5823479 4.1801758
-3.5046396 -8 8.8344536
7.7004633 4.3800621 0
5 -0.67969245 6.4804654
-3.721981 8 8.6722183
-1.3079737 -2.080935 10
-4.6278172 0.35875368 10
-5 -1.1863958 5.4699821
-7.4141245 3.0309289 0
-1.8539795 -5.8737211 0
-4.6104031 -4.6310854 8
-6.9592943 -8 3.9080243
1.1268842 -3.5897188 17.225971
-1.9236906 1.5704465 12.766081
-4.1714444 -7.3516321 10
-1.8867216 -8 2.0272274
-8 -1.6732717 9.5345106
0.84357721 -2.3394361 12.294844
-4.0109572 -8 2.1130123
-0.84635973 -5 4.5431433
6.1099753 -8 3.3202786
-2.6083999 -8 5.7616348
-8 2.0559068 0.069939025
-5 -3.8788123 5.2779031
1.3029838 -2.1149542 14.350875
-2.834909 5 5.5268464
8 -0.8945694 6.9856806
1.748999 -1.7636876 16.398537
8 -7.2126136 2.7144833
4.2412663 -1.9803672 10
3.151 0.48185658 12.508888
1.2820274 3.5456123 17.224606
-6.5391364 -5.7248998 10
-7.5466824 1.1443 10
1.3501526 2.8836818 15.325639
-0.17832147 3.1934044 16.581766
-1.0535347 -6.7264214 10
1.5793037 0.8296299 8
-8 3.634408 6.976615
-8 -7.8652773 4.808948
8 6.1446114 3.8015642
-8 -7.8829961 7.7084408
-8 2.0445902 5.3443875
4.5968161 -8 0.48667601
-4.6165676 8 1.9743258
-3.086153 -0.70606065 19.985222
1.2836714 2.1261041 14.981459
1.3344039 -2.8914068 13.342269
-1.2367005 -5 6.9581051
0.87550426 -6.0080748 0
5.5698314 -2.2197595 0
-3.4532509 -4.0691056 8
-2.7920139 -3.2781644 8
6.1868696 -1.6830364 0
-2.5276179 -7.7796922 10
-7.5243306 -0.77963495 10
4.0455756 5.2422752 10
-1.4417394 2.852731 16.655897
7.2722197 -0.52390862 0
-3.6854661 -0.97016871 10
-1.4081454 -7.5203562 10
-8 -0.91925669 5.1033478
8 -2.3498144 3.234452
-2.6054811 -5 2.3563595
-2.0587804 1.4094524 13.027651
-1.4050189 3.7894917 19.565109
-8 -6.297761 5.2766933
5 -4.1860476 6.8419204
-3.3841176 -2.0410891 17.363214
-5.6781893 -0.3233757 10
5.8600826 -8 9.0911121
-0.77700168 -2.2522867 10
0.96709204 -1.6124079 8
-3.0187304 5 1.6021929
-3.8753548 -4.8388138 8
-7.863986 -6.7388387 0
-1.916537 -4.3272662 10
8 5.7053232 0.92849767
-0.62934363 -3.1243103 14.792068
7.9938755 -6.0795412 10
4.6040831 -3.3196142 8
3.0745382 1.0928414 19.967548
4.0970478 0.4662084 10
-5 -4.1643023 2.1043158
-5 -4.2140589 3.011724
8 -7.3845477 1.6101612
8 -4.7278385 0.066359796
-2.1788116 -5 6.6571722
0.90048587 -4.3230901 18.07943
-7.8040285 -0.40408659 10
-6.0835543 4.6693015 10
-8 -4.1806812 2.6242771
-3.2856841 5 4.2787981
4.6723728 2.5194197 8
-1.3896596 2.0610907 13.742031
5.9524946 -8 2.0764263
-0.95736992 -8 7.630157
-2.7835026 -2.029161 10
0.60031283 -2.4122646 17.055145
-7.1331558 0.12359238 10
2.2879331 8 2.4089842
1.0841212 8 1.9831383
7.4522142 -1.5348229 10
2.6753798 -3.4846911 19.020473
5.1264334 -8 3.2413874
5 -2.2236805 2.5129893
7.4245176 -8 6.6434441
8 -3.6453087 4.5782957
8 4.4145966 3.3065002
8 6.6655312 6.9748106
4.2310829 0.94401681 17.852879
-2.7775726 -7.9342537 10
0.89792258 4.2921147 17.97961
-5 2.6239643 6.1071129
5.2708931 -7.8576498 0
3.0621428 5 3.7304497
7.2311616 -2.5839863 10
4.5527415 -7.2152472 10
-2.8710616 1.382501 11.750365
-8 7.5915084 2.0519438
-4.0524688 0.79951066 17.524153
-5.191349 -8 3.5469973
5.0986156 -8 7.8634968
8 1.3032951 8.2498245
5.5026879 -3.5867763 10
-6.7377329 -8 8.4971313
1.7736392 6.6674047 0
-2.2905059 -4.3961725 10
4.0226154 -5 0.72972822
5 -2.7822356 7.4185658
-3.1571231 -0.45248777 11.337715
-5 -3.7493696 0.90263605
5.9974632 -8 9.482193
-2.3375893 8 7.7363081
0.17386746 -8 3.0169988
-0.23801059 3.1842604 14.908562
8 -0.46580601 1.3412789
1.1554182 2.2001512 12.364973
8 -2.3024313 1.1705858
-2.817544 1.5072119 15.792062
-0.76326346 5 0.85507554
-3.7007492 5 2.8139613
0.9731257 1.81006 19.655571
-8 7.3265843 7.5491414
-5 -0.030186653 1.0566006
1.6177065 -6.1699896 10
-3.0641639 0.90483278 13.343367
-4.2987852 -0.95066142 19.018778
-0.74126649 -6.6211681 0
5 -4.464819 7.5775213
3.7574298 1.2358799 19.634714
1.0542876 5 2.1822429
-7.7761941 -0.73624659 0
4.2891369 0.98878324 18.966343
-3.6700094 -4.0231609 8
-3.6737747 7.0242491 0
0.22258651 5 7.5664058
-6.2036667 8 3.2627046
-7.3977013 3.7388163 0
8 -1.4437102 4.5608492
8 -6.6447482 1.7737297
0.62936717 -1.2014897 10
2.6314378 -1.8190589 10.755355
8 7.0614872 2.5862195
-2.4652376 0.36558253 14.344858
-6.7908959 2.9812708 10
4.8758097 0.2063213 8
5.5901327 8 4.2266746
8 -1.983193 5.3157835
-8 -5.2096367 4.9151044
8 -5.4986677 2.783927
-0.87733412 3.0699787 12.352324
-5.3963842 -8 5.9621549
-8 2.3941379 5.5542965
2.7957938 8 1.0686189
-3.157367 0.4513011 16.233843
-3.2003105 5.6051621 10
-5 -1.2413386 4.508688
-1.022403 -4.3359036 18.808363
-6.3367643 8 8.351058
5 2.7176242 4.4184542
-0.28920248 -1.5876635 19.046324
-5 -3.6770389 6.5087733
-7.6123071 5.2788095 0
0.49776167 -0.71988803 10
-7.9952469 8 3.6853409
-3.0036025 2.3344009 19.757469
1.3258188 6.7580872 0
5.4700408 8 1.2534249
1.5318668 -0.002038457 18.245436
-4.222805 -5 2.7520511
-6.2740707 6.2947617 10
-5 1.3697867 4.0456924
-6.2182741 8 3.7766347
-3.9439561 -0.13106744 19.64592
3.9245253 6.7234001 10
1.820267 2.6169055 15.482193
-3.0202641 -0.1194706 8
-4.9526072 4.8605995 10
8 5.2394161 5.1018262
-1.8949878 7.1380858 0
5 -3.2469471 5.0894265
0.76848781 -2.7648535 19.988022
-0.48246586 -8 7.9832082
7.1461711 2.030509 0
0.83711457 -8 8.4506979
-1.8431523 2.8197229 8
5 4.7026887 2.7182407
1.8256102 5.5295429 0
-2.1548426 0.82286531 19.819847
8 -1.1013849 8.8019981
1.5354209 0.88818192 10
6.7488036 -5.6005406 10
-2.9291365 3.7763002 8
-4.8290682 1.1271236 10
-1.1415068 6.5073667 0
3.5097146 -1.9815485 17.425703
4.1030893 5.7168388 10
2.9060636 -8 4.8955321
0.61951995 3.1047702 8
-7.1825953 4.4168625 10
-8 6.060091 1.7699757
6.6450214 -2.7372308 0
4.0430236 6.8330469 10
0.086402051 -3.1832914 16.068644
7.7205496 -6.4511261 0
-8 -2.5580413 7.8232784
-1.3203068 -0.73223358 18.585535
2.1685162 -0.70855349 17.192226
-4.1914167 8 1.3328564
2.2010579 2.3221512 10.242068
7.9456754 -8 0.51957935
5 0.66664189 5.4338107
-1.7439573 -6.0430465 10
2.4960814 0.033526607 14.192675
-4.0569534 -8 8.1524029
-8 -3.8269646 8.4203024
8 -6.4698572 2.983772
3.4831395 -8 7.4824958
8 6.993948 7.4222555
-2.7178278 8 8.5120611
-1.4748271 8 2.417115
-6.3712606 -2.2575371 0
-1.7595427 5 0.62744564
-7.6105475 -2.7670898 10.000001
-2.1372669 -8 1.8055406
-0.61427653 0.83254814 8
-1.1954784 -8 4.8485065
-5.9195514 1.1929729 10
-0.41874278 8 0.61971188
7.9245615 -8 4.8381357
2.5485916 -1.8647125 8
-5 3.6267247 0.15223742
3.6266558 -2.5714953 18.805473
-4.5580907 5 7.8689637
1.4722956 0.55825305 18.051649
1.6531088 -5 0.33801365
-6.5022249 -8 2.2531571
5.6861181 -4.9266028 10
-0.77279276 2.3709106 12.345745
8 -6.6313763 2.5802608
8 -0.019708633 7.578558
3.520843 -8 1.6057892
-8 5.0421443 1.0054997
7.7899914 2.3313236 0
4.4299717 -6.4637413 0
-8 0.91841233 2.1861362
-4.3905439 8 5.2094469
0.46704918 2.4521611 12.095861
1.322623 -2.1036153 15.22651
-0.64036113 -3.6802592 17.204876
0.81431037 1.5914847 17.63135
-0.12289055 3.1939056 15.538326
7.7849817 4.8903484 10
1.5524487 -2.7844505 12.062956
-0.66131431 3.9386382 19.606489
-5.2202039 8 0.36276519
-5 0.49932909 5.6114182
-8 2.6265337 1.746716
0.48744011 -5 5.0950856
-1.6946495 -1.8340343 16.649832
2.4247572 -0.59812105 13.413383
8 3.3892689 3.8628685
-4.6550536 -3.7199538 10
-2.4830959 -0.026902705 13.531088
-5 -0.63720036 7.9735913
-8 2.3754473 7.0393825
-2.0439491 -3.9756532 18.63076
1.8332632 8 8.0121775
5 2.12009 7.3815098
-2.1340337 3.3023291 19.652452
8 6.2568369 5.5393305
-1.9205081 -1.574239 16.615347
8 1.2046566 9.0228977
6.3883657 -8 5.5629311
4.513617 7.5674472 10
4.6582212 6.5702028 10
4.8834839 -8 0.059163392
-2.2681246 8 4.3465676
-4.8951969 1.5611448 8
8 -5.5925002 9.6439753
6.6229987 -1.2561324 10
-4.0761538 -1.1910805 8
0.36189166 2.4662261 16.664246
-4.046278 2.0647869 8
-1.7549423 1.7715526 13.602394
-3.304853 8 2.556237
-7.8617687 -8 8.2032814
7.2030706 -8 0.74302173
-5.6711836 -2.9710953 10
6.7429671 0.53908873 10
-8 -3.0855174 0.62484467
-5 1.3718234 5.9046726
8 1.7303562 3.7878587
-4.0191798 1.6391739 8
1.3138392 2.9014943 14.203973
2.3869576 -7.3472133 0
-4.7083759 8 4.8973885
-5.913414 8 4.547493
5 -4.9487209 0.14969993
2.1321669 -7.0453119 10
-0.80833077 4.3044472 8
2.3330514 1.1493963 19.935038
8 1.6162319 5.5183058
7.274806 -8 3.7960405
-3.7271338 -2.4607885 18.72971
-8 6.397162 2.8993027
5 0.57898432 5.6505475
-8 -6.0954642 9.1381378
2.8197751 7.7030187 0
-5 -1.8327603 0.68126869
-4.4357433 -5.3568902 10
-4.0953341 8 5.8423257
-1.6640519 0.14226979 19.193604
-4.9642868 0.68276572 8
1.0271386 -2.2742133 15.552782
7.8393416 2.9838037 10
2.0889952 -1.3425907 14.536943
4.4970064 8 0.58705986
6.7136431 -4.9327216 0
2.6293423 -1.8228345 12.551831
0.03867951 -2.4850512 16.098587
8 2.6627555 9.06003
-1.5779198 1.9209362 10.272283
-0.015654802 5 4.6093764
-0.90705597 5 4.1921024
8 -4.3478584 5.3231878
6.6926966 5.7222939 0
3.1450336 -2.7188878 17.558292
-8 -5.2955856 4.7073517
3.9983625 0.93263441 8
8 5.8011045 4.7395744
4.114316 0.32099774 17.531984
1.9905982 -5 4.1401367
-5 -3.8420048 7.9589667
2.9584999 5 5.4585419
-2.3703184 0.76607704 14.29061
5.9343982 8 1.5015399
7.1990342 -6.2164054 0
8 4.2372789 1.0539973
-4.6527295 -1.269093 8
1.1607319 3.2204757 10
5 3.1725223 0.30850542
1.3921365 0.19214356 8
8 -5.2191515 0.3495858
-5.1887312 5.3737345 0
2.4535999 -5 1.0156813
-7.2420697 7.1850533 0
8 -1.6657501 6.7767539
7.998209 5.8146706 0
-0.55204511 3.1361518 10.58227
8 -6.7551861 9.2421904
-2.2140288 -4.1292 10
1.9239898 4.2136579 10
2.9562471 8 8.9843063
1.3398423 2.8887391 11.865675
-0.45423943 -3.151135 16.287474
2.6985226 0.4476316 8
-1.4101977 -4.3115215 8
-5.3745356 -6.8458519 0
-1.0535314 -3.0047226 15.131733
-1.0475175 -8 2.7668715
-5 4.6876173 3.5611584
-4.4290361 0.69275928 18.62639
8 -6.3981805 3.9680009
5.2252908 7.1484737 10
-2.0474305 -5 1.6614313
2.2267518 0.81859648 17.143803
4.1618657 4.960824 10
-1.7350073 -1.6823721 10
-4.2432771 -0.95098174 17.877134
2.0054045 7.8543983 0
7.9494233 -8 2.7153075
8 -5.9091163 1.5703455
2.860877 -1.4056891 12.21495
5 0.68494809 1.9808652
-1.6854626 -5.5577202 0
1.99928 8 5.3344269
0.3773675 5 5.0548987
-6.1288147 -5.5731459 0
0.053722702 3.1849484 13.989953
1.6042712 -1.9002312 13.328454
-8 4.4503527 6.4223232
-8 5.3395071 3.7225766
4.5916958 -8 9.3615007
-3.6975427 0.61619925 17.212175
8 -6.0500011 0.18750247
3.8543763 -2.0175385 17.878496
-5 -1.9100089 7.4333549
0.86852264 5 5.5878119
4.0690293 -5 5.8453135
-1.4720502 4.0368404 19.242643
1.5729094 -2.7744143 15.968874
7.9435911 8 7.2536831
-8 7.1269159 4.379849
-6.4090428 -8 1.9662439
-1.2428946 0.63384938 10
-6.3308458 -8 5.9019556
8 6.4714561 9.1998301
4.8443656 -3.1249135 10
6.9437609 -1.5440764 0
-3.7510557 1.1614151 17.341385
-0.65849763 5 7.593051
8 -0.52055144 2.8889561
8 -1.4331706 9.3352575
1.8745193 -7.8099174 0
1.9115425 0.45592728 17.419685
3.2364922 -7.5140657 0
7.7144785 4.6973047 10
-3.1767244 -8 5.8782554
-1.4548424 -2.8445637 10.759597
-8 -1.4241993 1.7932969
8 -6.7080803 4.7928634
-8 -2.777915 9.2518597
-1.025139 -5 5.976552
-1.4208025 -2.8657811 10.90211
7.4183984 0.76926887 0
2.0096729 -3.2806954 19.733517
-5 -0.00039958954 3.8239002
0.95177364 -6.6548939 0
-3.8507459 -0.95694262 19.6418
4.2481608 0.22202525 17.715448
-8 -2.9267697 0.36331871
-6.8531923 -8 7.6643753
8 -5.7365479 6.1655684
7.5816975 -8 8.8173513
-8 -2.3345575 5.2175913
-5.4628391 7.1516399 0
-6.3848219 8 1.015749
4.9300613 8 5.3750329
-2.7226768 1.6610556 14.722656
-4.5206766 -5 3.1794167
-5.0920401 -3.9716809 0
-4.7730703 7.537014 0
-4.6708241 8 7.9993868
-2.7435181 -1.6311121 13.593929
-5 2.5655208 0.82762241
0.11832023 8 5.0474844
-8 1.857528 7.672905
-8 -7.7456264 9.4337168
8 3.2508497 0.8686747
-0.55725527 -0.69039702 8
7.8878202 -4.093081 10
7.7835293 -8 1.6326152
1.7862036 2.6432729 12.690437
1.1073145 8 0.0094372034
-1.0056235 2.8568218 19.989241
5 -0.26813367 4.0965052
5 -4.8918967 1.1667887
8 -3.6857402 9.8845901
-2.1486993 -2.3499117 11.819482
0.90927333 -5 2.9714079
-2.8029246 -5 3.2549205
2.7203717 -5 1.2732158
5 -1.5732729 1.4693774
7.3129716 -2.9850078 0
0.16770712 3.3283544 19.948902
6.0283756 -8 3.4184146
-0.99016595 3.0281904 10.199923
2.4617782 -5 2.4906607
-5 -3.5310698 7.9024801
-8 -3.84445 8.3212242
5 0.77538204 0.39644304
-1.3674344 2.077637 10.664825
-4.0756159 -0.1499728 10
-3.971962 -2.0629382 18.592278
8 -2.0560808 9.9353638
-0.91962183 3.9850841 8
5.882504 -8 7.9321499
-5.8310556 -3.063848 0
2.5448608 5 1.1104424
3.4248259 -5 4.1958737
-1.5902293 -1.9117723 12.068104
1.1405382 1.0263021 18.202646
8 -4.1145344 8.3717756
-6.8607249 7.3908648 0
0.86347425 -2.3334792 15.456988
-2.7361209 0.16097894 19.971872
6.6152568 -8 6.4171028
-4.6480374 -6.3487458 10
-0.58232933 1.870087 19.566105
8 -7.8542428 4.1599402
0.81877995 -4.8294125 8
2.1780286 -2.3399773 13.532363
-6.1500711 8 1.6836051
0.19208758 2.4761162 16.699646
-3.8347189 2.1252186 8
-2.4790087 4.5816026 8
3.0821977 -8 1.4954655
6.652009 -0.770365 10
0.97263765 -0.63555098 8
-5 4.3709993 5.1590562
-5 3.2038043 1.1608443
-5 0.55009127 4.4745002
8 4.9730668 9.902422
0.87934303 3.0608845 11.414625
-1.7891192 -5 4.6014767
-0.29350686 -7.1330128 0
-1.5205674 -2.803597 12.715636
4.8618126 1.0162916 10
1.3621607 -3.133281 17.072437
-8 -6.4033918 2.6368513
-3.5023777 -5 1.9414155
2.541863 -5 3.2877207
4.3064041 3.4626992 8
1.6697531 -3.1854005 8
-8 -6.8732758 3.7287519
-0.75766444 6.946034 0
-1.1143014 -2.1952908 19.901186
1.5084938 -2.8060117 13.085491
5 4.5223489 2.8465023
7.8580637 0.92540693 10
3.1786177 -0.21027173 10.315532
-2.5823216 -5.0000005 1.965407
-1.2862225 -8 0.85770959
6.1997972 2.2261147 10
0.77179408 -2.3609266 12.344421
-7.9988756 -8 9.0056753
-2.5143719 1.9603355 11.087292
6.6053791 -1.5234807 0
-1.6681743 -1.7866435 19.892691
1.5320185 5 0.96536404
-4.0176859 -5 5.5032439
-3.505847 8 4.4543567
-4.7838259 8 7.3840561
7.8819265 -6.5570736 10
8 -3.1349969 4.1515903
-0.71636766 -1.9853489 10
1.3457668 -1.0221286 10
5.5702682 -8 8.3796225
8 6.9253559 1.4526441
-8 0.076128602 2.961962
-0.41887689 5 4.5102954
3.8943799 5.7241354 0
-5 -4.4872231 6.8038359
6.4588923 8 5.0157299
-5.990334 8 1.1084062
-5 3.0088336 0.89882517
-3.8128767 1.0246047 17.363331
1.2060254 -5 0.51590586
3.288898 -2.5456033 17.562346
-1.7387404 1.7908611 13.036847
1.3518679 8 6.7588749
8 2.9805694 9.1299763
-5.799603 3.4729865 10
0.96146649 3.0396211 16.168823
-4.5207462 5 7.5001392
-0.31859779 5 1.5199488
-5 -2.0645659 3.5008097
1.7143469 -8 5.9637475
8 6.2595091 6.851737
3.5121408 5 5.8100338
3.8564057 -5 5.3302369
2.1349907 0.30084333 17.258787
2.5816615 4.9999995 7.5138516
-1.8027841 -5 6.7572708
-3.3002405 1.8351097 8
-3.6050141 2.0841715 17.564148
8 -1.6889757 5.8608656
-8 -1.5842438 8.5951147
6.437613 -0.76995432 0
3.3359509 -0.19651644 10
-5.8909101 4.092185 0
5 0.82115161 1.2956077
1.1839001 -5 3.4057422
-3.7425156 -3.9025655 8
-5 4.2741661 3.2807553
-4.7136106 5.5771604 10
6.2841892 0.48760915 0
2.1954174 1.180784 14.508607
-7.2628813 -7.4310446 0
-4.2688961 -5 0.40188265
-0.38459015 -5 6.4530029
-3.8466065 4.7214808 8
-5 3.3169937 4.8349414
4.8700509 -4.1690564 10
-2.9014359 -5.5252504 0
1.5412836 5 5.5287819
3.8119993 -8 9.6722212
-0.067164928 -8 9.3881598
-2.1446924 -3.291003 19.667408
-0.26734012 1.6318167 19.159096
3.1646516 0.32271862 8
8 3.3606005 2.6170661
1.4781438 -5 5.3524241
6.8221502 -0.26209593 10
-2.3116903 5 1.39528
0.82900119 -8 7.717886
-4.1858382 7.0953355 10
5.7177162 7.714201 0
-2.6546702 3.5853868 18.691147
-8 -3.3480022 8.0181618
7.671555 -8 6.8177176
8 7.8748226 5.2920976
-2.1956067 -0.3816424 8
-1.3929799 0.55327171 18.45322
8 3.2528501 9.0942307
1.1925144 8 1.1648667
-3.1835818 0.18335879 10.05478
0.96893418 4.4496155 8
-0.095853716 -2.492887 13.574838
2.9447899 8 3.627996
-2.2987103 -5 7.9361596
5 4.9770694 0.69174433
0.68387944 -3.5579069 10
4.3690281 0.32011414 19.015299
-2.4830959 -0.013698459 13.138917
2.7539821 -4.4925165 8
0.60963273 8 9.625823
2.9822357 1.1294434 16.495955
-5 1.7482646 0.07814455
8 0.91984653 0.48784605
1.3686436 -2.0273392 10
-2.4830959 -0.20426282 12.247357
2.0798762 -1.3564559 13.727147
-0.96891248 3.036062 10.381866
0.41930562 -8 4.6043406
0.26152062 -4.3217778 9.999999
7.0587788 4.9430223 10
3.2914393 -8 5.0597053
8 0.49146175 1.848475
-3.1955681 -8 8.808197
-5.2065287 -1.5500765 10
3.6311083 0.27822131 8
8 5.3629475 3.0872903
-1.0058569 2.2703767 12.827351
-1.6014876 7.5782733 10
5 3.9545281 6.6327858
-0.1845236 3.8453021 17.266071
-7.0208549 -8 1.5218987
8 1.8965569 9.1529713
3.0461655 -2.227262 8
8 -1.6492071 4.5470381
3.6511199 2.0821705 10
0.16999114 -3.1790519 14.066383
-0.45915511 -2.4404402 12.692936
0.68168497 6.2579308 10
2.6882038 8 7.5380869
4.0942793 -0.88341355 10
-4.7057734 -8 2.5028477
-0.061622143 5 1.9771283
-5 -2.92905 2.8117847
4.7994938 8 0.34183145
5 4.8538656 2.6261082
3.3568873 -1.767205 19.765055
1.9248087 5 3.7585337
-1.8966676 1.6498952 19.913357
8 -2.1354752 3.3321035
5 -0.12215579 0.77309352
4.1773877 -1.1389767 19.175606
-8 -4.1446114 5.184721
5 3.4499996 0.87547767
-8 -2.0231087 4.565897
-6.8478875 -7.6572061 10
6.256918 -3.5151734 10
0.52997422 -5.4524093 0
0.39889392 -3.8327384 17.273285
-2.8390172 1.4571732 10.197203
8 -1.6886013 5.6969228
-4.0813828 8 9.882988
-7.0258861 -3.2219167 10
5 -0.12913656 4.9098058
-1.5962484 2.7564244 15.288839
6.7580552 4.2464972 0
-7.3633327 8 1.4761416
0.75610918 -2.3656223 11.3402
-2.7793479 -8 3.7969432
4.6920657 -8 8.6713715
-2.8795798 3.0185461 10
2.3568809 5 4.1860585
5 4.0710258 0.20098613
0.23142202 -1.2294614 10
-6.5340662 -8 4.2597275
8 -1.9872099 6.0219088
0.74607462 1.0435627 8
2.1571379 1.2389849 12.14278
-5 -3.4932098 7.8640547
2.3927562 5 1.177595
-4.3845153 -1.0689818 8
-3.1557045 0.45939085 13.834001
2.046813 1.4067256 14.344221
2.4421389 2.0292382 19.988728
4.9313526 -6.6882401 10
-8 1.7207339 7.9968147
8 -0.28482842 7.9444623
1.7661335 -1.747522 11.914462
3.0515981 -4.9999995 7.3846292
2.1002476 -2.4001844 10.749179
4.9922695 0.18514073 10
4.5866003 -8 2.8988767
-5 -3.3364191 4.4285727
-8 -6.249979 3.4410958
-8 2.2634189 2.6374493
-2.2952952 7.7979774 10
1.7212623 1.7898558 13.322746
-5 4.1999211 0.29434729
-4.2394776 1.4142336 10
-4.0748997 1.5016229 8
-3.1835818 0.092053235 15.060349
-2.7053914 -0.033568501 8
-6.1402845 3.9925299 10
-5 -0.10198593 4.0995684
1.2513 -2.1447937 12.238308
-2.8624706 8 8.8648224
1.7764857 5.3594666 0
-0.85160685 2.3369136 10.463382
-1.5495553 -0.9592247 17.586178
-3.1595187 2.5479279 19.548344
5 4.7161274 6.9249163
-1.9639276 -8 7.6094255
-2.208322 -1.3336673 8
5 4.5526924 5.4202409
5 -0.056171179 5.0800195
-1.3394237 -8 2.9449139
1.1991644 -2.1748943 16.841972
4.421411 5 2.8381238
8 -3.1189463 1.3376878
-4.0529556 -4.5988941 8
-0.12256819 -5.8267775 0
-7.7357049 -5.6592717 0
2.4498289 -1.5119137 19.988058
1.4776061 2.8211627 16.14492
8 -4.7461176 8.6429853
5 2.0175323 3.7934442
-7.4764519 3.7200487 0
7.8829136 -3.9448247 0
-1.015556 3.0187869 13.207293
-8 6.7033587 4.4487743
-3.1835818 0.21313916 13.747202
0.0031806827 -2.4871187 11.057484
3.7512627 4.0142283 8
0.71239662 3.10411 11.933825
-4.2761459 5 1.496797
-5.8490667 8 8.5974836
5 -4.980372 2.8472688
-3.3524752 8 2.3620267
-8 -5.6352835 4.2299228
1.7462274 1.1998037 17.288191
5 -2.1548328 4.9833698
2.7111559 8 1.2839735
5 -2.4628577 4.1708112
-4.3729758 1.393005 8
-5.8630605 8 0.23083448
0.55022633 -2.4272597 14.499441
-4.3535638 5 2.1930923
-0.90130097 5 5.0258279
5 1.7953358 5.4144359
-8 -0.91710591 5.9866166
1.765274 -5 6.8688664
0.51850635 2.0228038 10
-7.9144735 2.4225698 0
5 -3.8162909 7.8592453
-0.48721409 -3.1460836 13.235314
-2.752975 7.4463243 0
-8 -7.5028229 0.67354548
3.8666582 -3.7233267 8
-1.542001 6.9365263 10
5 2.5561237 5.9693036
8 -0.11694312 3.8287454
-8 1.618058 0.93336147
-4.6089659 8 4.702877
2.0181773 -6.0571432 10
-7.053441 8 6.078022
1.0704706 5.3248749 0
1.6937916 -3.4150195 17.252892
1.4765406 -7.0323429 10
1.6625409 -8 6.7026634
-4.9307723 7.1922474 0
-3.386797 -8 0.80390346
-2.1276309 -2.8080194 19.880825
-8 4.1481204 9.9664583
-0.48314035 -5.1363249 0
5 4.7946415 6.3549914
3.4589167 -1.2874123 10
-2.6858995 -8 2.6563306
0.31413341 -1.761493 19.368361
8 -4.4555316 6.9549341
-2.8868904 -1.3456156 11.056371
-1.0328187 -4.5555668 10
-6.4922209 -6.5350924 10
-4.4283643 8 0.96175134
-8 -7.079545 4.7819171
-4.1561499 -8 9.6611795
-6.5660748 -8 4.7036309
-3.9523215 6.8433676 0
-6.654778 -8 4.8586068
4.4508367 -8 8.6817923
-1.7436814 -2.6645288 13.491447
-3.6865294 -8 8.0177851
-6.4336615 8 4.5577607
6.662756 4.5604115 10
-8 -4.8429055 4.4613533
0.14999843 6.9148464 10
2.005861 -1.4689903 14.100476
-3.8914962 5 0.63934773
-3.6736691 7.8576441 0
0.77635622 -7.7894368 10
-6.0676317 8 3.6496773
-0.38962823 3.7762089 10
0.17953014 -3.6242034 8
-2.4372191 -7.5285439 10
8 4.1038036 0.4457413
4.0855832 1.1094313 19.310862
-4.5378442 8 1.4698029
2.0610211 0.032829624 17.341547
-0.7255711 -4.0522399 17.501734
0.78303874 2.3575602 16.518614
2.6102586 -4.6187305 8
-6.0519323 -8 8.8238354
-8 -6.3299198 8.0112343
4.3482013 0.72708386 18.023357
-5 -3.8169627 3.0994186
5 4.8242154 4.3160014
-4.2760944 -8 7.632452
-8 -5.9630013 6.8624725
-1.9193946 0.49424267 19.59362
-0.13819337 -1.7159405 8
-8 -3.3548596 3.2126591
-0.1074025 1.3850405 10
0.59423494 -1.2187366 8
-1.5946987 -1.9084449 16.549164
-3.0690691 0.88096309 13.309848
3.7401013 0.046534568 17.209229
-0.83312511 5 6.34519
8 5.2571316 7.8347721
-5 -3.2745845 1.7944355
-1.2895342 5 5.4848609
1.5451121 -8 3.1439433
1.2407811 -0.99540043 10
4.2557712 -5 3.1501265
-8 0.71023321 1.401613
-0.84097362 -3.1342406 10
-0.60568309 0.65004551 8
5 -1.3794413 5.8429713
-1.61426 4.0991211 10
-0.46996963 -8 8.0418978
-2.3173161 8 9.2574053
-0.71839863 2.1442719 8
-7.8088727 -2.561039 0
2.0351183 7.4235611 10
3.5866294 8 5.6421542
-0.96086287 -3.0390429 12.471745
2.7834964 1.5451016 15.748615
-8 6.1090736 9.86098
-3.1803858 -1.4908884 10
0.97129995 -0.45323384 10
-6.9783454 -7.3561759 0
2.7472863 8 2.9172909
-4.4217644 -5 7.7755017
-3.1459074 0.50706446 16.696167
-1.1720699 1.1232327 17.917843
8 3.9794731 7.7093816
7.821085 -8 7.0792642
8 4.1394148 7.4956284
-5.9551115 8 2.6521266
-2.3189435 -5.7816582 10
-2.6186416 -3.620589 18.374266
0.55125928 5 1.9231372
7.0903015 2.9683375 10
-1.8097904 5.3745065 10
-5.0207844 8 2.046098
0.7380991 -5 7.9272833
6.6354561 -2.2375147 0
8 6.0722723 0.62828881
8 -1.9250851 3.159559
-2.6638069 -1.7456365 14.371065
2.4493337 -8 1.0784636
-6.9022956 -5.9385238 10
0.90783834 4.3862138 18.591724
6.4995251 5.4335127 0
-8 5.8126893 7.0742378
-8 -7.7998447 6.3539643
-8 -3.2964878 9.2770309
8 -7.1649599 4.750526
-3.1835818 0.25301838 15.547841
-3.0816264 6.7666969 0
-8 6.2785454 5.9901147
-3.2430353 0.17827845 17.028099
-8 7.8562837 7.7799177
-2.5887909 5.3902345 0
-2.698806 1.6953515 14.995202
-4.2162657 7.4556322 0
8 -1.0138609 1.4552029
-2.1500177 5 6.8337784
0.83247948 -1.8495669 8
-4.3339005 -8 1.1390209
5 -1.6516936 4.5501766
2.9827337 -1.1278555 16.435396
4.1579518 -7.3379769 0
-7.2012539 -6.576715 0
-1.9718658 5 0.99789846
-1.7831533 4.1147642 18.499466
-5.1130614 6.1609035 10
-5 0.99979401 7.5966887
-3.0348499 4.8965101 10
4.7747741 5 4.4432092
-5 -2.1853013 7.674552
-0.33162704 -2.263314 10
7.5181894 -8 2.4241335
0.58184063 3.7632041 8
0.13563618 3.1807945 14.246374
-7.445025 7.5112514 0
1.3752942 5.7495055 0
-3.0452511 -0.97659159 10.791043
8 -6.8912435 5.9328194
0.13792314 5 7.8980212
-1.5995768 0.69322789 8
3.2349384 -5 1.8869305
1.1599646 -8 8.2404528
-2.0279074 -7.2203031 10
-7.0635576 7.1462545 0
7.8841152 8 2.807225
-2.4303355 -4.8526521 10
0.50917554 3.0144672 8
5 -3.5011375 1.2404882
1.6884232 0.5929057 17.630699
-5.4518147 8 2.0986705
1.2008296 -0.9302367 18.691776
-0.048470736 -8 7.3423223
8 6.3105659 7.3514309
-5.8526182 3.5477746 10
5.9629459 -0.37800312 10
-5.8823886 -4.9061213 10
2.9513621 1.2278448 11.375624
1.1117792 4.8475313 8
0.28251791 8 4.6688962
-1.8553047 5 6.4774261
2.6508884 4.997458 8
8 5.8278313 4.6619601
-0.94590616 -4.0490789 17.558989
-5 1.707796 5.7549095
8 -6.389935 2.8287375
2.4221699 -0.60522938 10.410118
1.6993136 8 3.2695889
4.4054542 -5.38306 10
3.4640343 -3.3411336 10
2.6902704 5.3441887 10
-3.7894511 -2.3392677 18.224499
-3.4380908 -2.6932745 17.936062
-3.1910496 8 6.2459431
1.8815204 -5 5.2681532
3.087878 -3.6064329 10
-6.7840652 0.80947483 0
-6.4082589 8 0.34301281
-0.28102228 -2.0877426 19.702826
2.318126 -0.93863052 19.910065
2.9819613 -8 8.1151371
-8 -4.1541553 6.7585998
2.4094167 2.0808635 13.469366
2.8441224 -2.7632728 17.370493
1.1216726 -7.1131725 10
-1.9619517 6.9680972 10
-4.0596428 5 7.6391902
-6.0615921 3.3692482 10
2.1077378 7.956706 10
-7.5502872 -6.7949419 0
4.9614902 6.0085893 10
0.3210125 8 8.1352367
-3.9216368 -5 7.0493627
5 -1.4016194 3.377281
-5.1071668 -6.7800927 10
3.2296314 0.17104875 19.972441
-5.5559654 7.2331772 10
5.8495908 -8 1.972136
0.16990998 -2.4774079 11.75721
2.4885015 -0.098375268 12.546658
7.7993493 -3.8342087 0
-3.1835818 -0.028609961 13.929268
6.9100699 -5.3663349 10
3.2631655 -8 4.9929118
3.1801488 0.19521083 10.384754
-5.6409397 5.5955515 10
