# .PCD v0.7 - Point Cloud Data file format
VERSION 0.7
FIELDS x y z
SIZE 4 4 4
TYPE F F F
COUNT 1 1 1
WIDTH 1984
HEIGHT 1
VIEWPOINT 0 0 0 1 0 0 0
POINTS 1984
DATA ascii
0.29018641 7.0822072 10
-1.8152601 -8 9.5191269
6.7327962 3.684629 10
-0.88128662 0.30600017 16.815636
-0.38493085 3.7473423 8
-1.7109134 -5 1.5831165
-8 0.85277915 7.4632921
5.3740187 -8 1.4359683
-1.7978537 -8 4.1152854
2.6027644 5 0.80602449
8 -7.6831403 3.5004148
-4.4878297 5 6.3728585
6.5777664 7.7970166 0
-5 2.9387622 2.9826303
0.81583381 5 2.6916142
6.0864744 -8 4.854238
1.3491863 -0.081932604 20
1.7011825 -1.3479452 18.880789
-7.9282432 -5.4647269 10
-5.7556105 6.2164249 10
-0.0016407967 -2.9168479 8
-8 2.928791 0.88261724
1.9611206 3.7606034 8
-8 5.7535295 5.0181365
0.27253151 -5.5184975 10
-5 -0.44424486 2.918644
0.85095501 -0.058850765 8
3.0490665 -1.7484444 19.560469
8 -0.22387886 2.1026056
8 -7.3090534 3.3053005
1.413693 0.97717816 15.2045
6.346849 -1.1675212 10
6.9671931 1.9810286 0
1.148806 -0.99417508 17.074957
4.679256 -7.6600995 0
-1.6139894 -5 4.1067367
6.9220281 -2.8887 0
-0.89808714 0.31676006 18.621468
-5.5314026 8 8.8611012
-0.57695818 -5 5.2035284
3.2551031 5 0.23322989
-7.0726695 0.52215743 10
-2.0220697 1.0366158 17.30485
-2.5450349 -5 3.2727361
5.4344392 8 8.1756477
-2.4302416 -7.5662489 10
-3.9566152 6.6541505 0
4.3669395 -8 0.35436508
-5 1.8150483 5.7114258
8 -0.28608441 9.4117785
-0.74108386 -4.7135043 8
5 0.60684013 4.9353018
-4.9192514 -8 2.3325553
-2.6029878 -1.9589958 8
-6.1959219 -8 5.0581379
-8 -0.94295573 7.0505686
7.9947157 8 9.493866
7.5915046 -8 3.129277
-0.74378049 0.0059433877 8
8 2.8768301 5.6593504
-2.6348104 8 3.4455247
4.6704769 8 4.7246218
-0.88177031 0.30630979 13.046364
-1.4704247 -5 4.5019436
8 4.32687 4.4690266
7.0064788 8 1.9539601
-3.6736917 -3.7794468 8
-1.6141869 -2.2720189 8
-8 -7.7786055 2.769275
8 -1.5537188 6.1614265
4.3331747 8 9.8943291
-6.5093379 4.1051908 0
5 4.1701889 2.1608191
1.1958714 2.2484007 10
8 -0.23298192 7.9687743
1.4039721 -8 9.0756779
-4.2444053 -1.794318 10
1.1498219 8 1.1655319
8 6.6430464 5.1370459
8 -6.0984907 4.5963988
4.5375886 -8 7.1313014
-8 -2.2197299 5.5442615
5.9703021 4.5235782 10
1.5720077 -2.54336 8
-8 -7.6678228 2.069629
0.53200221 -5 4.1315713
-4.8577023 -8 7.0851202
7.765686 -0.43900296 0
-8 1.39631 2.1343482
8 7.8734369 7.69277
-5 -2.0251284 7.1419001
-1.1705599 -4.7963753 8
-1.9008092 2.1897902 10.608429
2.5664165 8 3.5185277
2.1739225 -1.8921639 8
-8 -0.8195188 5.6054688
-8 0.38145638 2.0660448
0.51790071 2.4701653 11.575483
0.72064364 -7.9852896 10
8 4.000246 3.9662051
2.4947324 8 4.426198
0.40026617 -3.725328 8
-1.9931638 1.1370993 20
-8 4.7840419 3.293905
8 0.23074055 0.69801122
3.7519534 -8 3.2463276
-4.4992914 5 4.7724771
4.3716016 -4.1158676 10
-0.13567638 8 4.3428526
0.094758987 5 7.5667124
-7.6617479 1.5526249 0
-8 -7.5073214 4.8376412
0.87348104 -5 7.9598618
-8 2.7891331 1.1993951
-2.9660037 2.052156 15.960217
-5 3.2264743 0.53870249
-3.3357143 -7.3869748 10
-6.8279223 -8 1.0840375
-8 -1.5914608 6.2168245
-2.450068 2.0200028 8
-5.8926611 8 8.1200256
6.2294321 -8 9.0519257
-2.8189585 -0.3990407 10
-0.88256812 -7.0324998 10
0.1730473 7.7633801 0
-8 2.5522408 0.024187295
-3.7886138 5 4.763577
-5.8148565 -8 7.124598
6.8154182 5.351429 0
2.2194853 -8 3.6041579
1.5545714 -1.2540481 12.465444
-6.928165 -3.6194229 0
1.358954 -7.48667 0
-0.19858968 -0.13123402 13.167958
-8 6.4458704 2.6573448
-6.9938765 -8 4.1894188
-3.9468837 -8 3.184242
0.14976931 -3.5171609 8
2.5970733 -5 1.0568061
4.4104757 -3.0964017 8
5.5910792 0.099592686 0
-5 -3.9290218 7.8831339
-1.9546806 -5 3.7955341
8 -1.9352438 3.2822671
-4.9895306 0.65101075 8
0.038000464 -0.28275824 11.058123
7.2534695 1.4658986 0
1.2722802 1.2128663 16.58198
-6.7506819 3.9899416 0
2.0689528 -0.11492121 11.036667
-2.1387048 5.9926462 0
-4.3459573 -4.7506824 10
5.689045 -8 4.8231912
2.2123466 8 0.33136904
1.1817232 -7.655458 10
6.1103487 -6.5965452 10
3.4520178 8 8.5845146
2.4680557 -1.8390902 10.481354
-7.0923438 1.952517 10
-1.6743371 5.8171854 0
1.4018779 -1.1562552 16.958157
-5.7958202 8 2.5771253
-1.0544263 -8 9.2743454
0.47618508 8 7.4925036
-5 -2.688061 2.645143
1.153363 3.9398046 10
-0.58232725 2.3934314 10
-5 1.8257747 1.1074319
-4.7680049 -5.0000005 0.54569077
-4.0810947 -6.2259345 10
-3.1508365 3.0776429 8
7.2467213 1.7023098 0
1.7895858 -1.4045632 10.965497
-7.4741669 3.57586 10
-2.061733 1.0620183 17.390219
-8 3.852807 2.1640415
-1.6488417 5 5.6462607
3.6047232 5 3.0567234
-1.2921367 0.56912947 17.544947
1.783891 0.36018157 18.172676
-5 0.40837812 7.233315
-4.4185491 -1.9074701 10
2.2352624 7.7683721 0
8 -4.9044876 3.5958283
0.28527308 4.2513876 8
-5 1.1496787 4.8034806
-5.9353724 3.9276555 10
2.2003102 -0.3338505 16.189663
4.3550377 2.2972627 8
-6.0788469 -0.22131765 10
-0.049462199 5 0.77118599
2.7014756 -1.1691258 15.238925
7.0631409 -8 3.1555438
-4.6383257 1.4269717 10
-5.9869595 3.0297189 0
8 3.0664444 4.1094246
-4.0653691 5 6.5936341
-5 -4.5269709 2.9061465
-0.99762583 5 0.25541729
1.0003525 -8 3.4627316
-3.0990577 1.7263741 16.569056
5.6541338 3.0528345 0
-5.0912209 -8 5.7524543
6.185905 -1.5738091 10
4.9498773 -8 9.9361086
0.083886385 8 2.5467272
1.8849845 -0.47742248 8
5 -1.3256587 0.98740697
-0.56287807 2.077816 20
1.301319 5 0.92495191
-5.9390697 1.8342351 0
3.0338764 8 3.799262
-1.1203654 5 0.99246103
8 -2.4565101 4.2143126
-8 6.5050554 0.52970159
5.517252 -5.9921112 10
2.5907865 5 2.9975498
2.8203106 -5.2024574 10
-0.77898741 -3.9896274 8
3.955627 -8 0.0093099829
-1.3236468 5 0.64720362
2.8967204 -8 9.3430634
-2.3424985 1.241835 17.184504
1.7169731 5.6074181 0
5 -0.53671145 1.6039649
-4.563117 -6.9305749 10
-1.7749295 -8 7.3707581
8 6.1377068 6.3052282
-6.4833179 -8 8.7566681
3.055191 -2.0577972 20
-0.16549489 0.17970416 20
-4.8145027 -5 2.8005848
-8 -6.4885449 7.9446487
3.2215691 5 1.4680037
8 -6.9256058 0.61143368
-1.1651722 -3.0402586 10
6.9688573 8 3.7284398
-4.6837149 -5 7.0976367
8 -2.5869818 2.2000973
4.358407 8 8.9774418
2.4949188 8 0.072878599
5 -1.1950636 7.1809993
-7.1061039 -8 9.4712849
4.2602062 -1.7514005 10
4.5345993 -5 3.106904
1.8631451 0.22809166 12.524749
-4.7877946 3.7256842 10
-1.3866677 8 0.9383285
-2.7820716 -4.3811283 10
-3.3372192 5 7.1392031
-6.7062163 -5.8400311 0
3.7833769 -5 6.3909264
4.1258478 -8 2.4026895
-8 -4.4222031 7.3747973
1.6143482 -8 1.9014316
-7.650435 4.8205576 10
6.7349949 -0.32463634 0
-4.4626775 -7.1363239 10
5 -0.16104954 4.0089126
-2.1733289 2.1545777 12.698595
-6.2484384 -3.1751728 0
-0.084860086 -2.7498007 10
5 3.6958599 4.120378
5.3552313 8 4.3131757
-1.7937152 0.89036608 14.293777
-0.16493165 4.8793926 10
-0.6211009 0.13936388 10.142319
-3.3553414 0.21914852 8
-8 -1.8232211 5.4046845
8 1.1886995 6.0826459
5 0.82635045 0.32203707
6.9291515 8 1.9879997
5 0.39200747 5.6609974
8 1.9826465 6.957572
4.0916266 5 5.0722461
8 6.8954878 7.3008575
6.3504505 -6.4746127 10
-2.5600092 -2.0068953 10
-8 3.9953403 5.0874949
2.3054695 -0.50911611 18.421093
6.7196999 7.0780606 10
-2.5098226 -3.6225996 10
0.87350059 7.6462603 10
2.89467 -2.1123157 19.959702
0.87872535 8 1.457575
-2.457449 -5.5963039 0
-4.3049169 -5.7367482 10
-1.017565 -7.2960105 10
8 5.6336641 9.7464151
3.0030994 3.6796811 10
3.5740836 5 6.0686197
5 -3.6391687 0.96356875
-4.1185503 6.5516315 0
-0.69390541 2.3457351 18.791161
-1.3065877 2.2665701 12.171885
-1.6326989 -8 9.6483631
8 -0.86787891 0.36738008
-6.0287342 -4.9958196 0
5 4.1971722 1.6584988
-0.69600201 -5 3.9286034
-4.6276655 0.79657423 8
3.3872414 -8 0.045579735
-2.5868268 2.1011496 15.273138
0.17128181 8 7.4388723
4.3748417 -4.2866554 8
6.2670865 7.0671806 10
2.2551417 5 6.1322994
-2.8610735 -3.8990588 8
-4.480917 -5 4.4219904
-7.6242433 -3.9774213 0
8 5.1645966 0.51080197
3.9419308 -5.7290888 0
-6.0289698 -4.3429337 0
5 4.8427372 7.3090081
0.082789421 3.6752608 10
-0.85966921 -4.2794046 10
5.9939532 -8 1.3122376
-6.1968799 -8 2.4202132
-1.6436634 2.2230163 14.096574
-0.10149264 -8 5.8513908
-8 5.4739575 7.8932352
-8 -1.9374244 6.0878668
-6.1800737 -7.5061741 10
3.2087476 -4.0870075 8
-2.2212927 -2.2000206 8
0.084989309 -5 7.5166321
3.3998137 -2.3330231 15.515955
-7.9952846 -3.2621388 10
-5 -1.3146914 7.6921911
-1.2829764 -8 5.5092521
-0.45241427 7.5768647 10
-2.9590251 -8 6.3751059
-5 -2.3325157 1.6162333
5 -2.7498393 6.2506194
1.2410686 1.2648857 12.499361
-6.5951724 4.1580429 0
4.445312 6.9559989 10
-4.0376372 5.2903447 10
-1.2502038 3.4734118 10
-4.3449755 -8 4.7927279
-3.9887486 8 8.8557596
8 5.6376982 2.1625228
-8 6.7435894 6.3839808
3.2210224 8 4.0375004
3.3126128 8 7.2693501
-3.7322235 8 5.9894533
-1.1481193 2.2870455 15.188805
4.3975706 -4.5463028 10
7.7800612 -1.9979391 10
7.286026 3.0342071 0
-8 3.3682647 9.9375801
1.7870345 5 3.2516623
-7.4585652 -8 7.5992947
-8 -2.7995105 3.0464413
8 1.4645309 2.347266
8 4.8971543 9.4348927
-8 -0.061250925 6.1937814
8 3.7487655 9.5271873
6.4717135 6.8689427 0
-2.7717304 8 9.5415668
8 3.4006824 6.551549
4.0628114 3.0436325 10
1.2450867 1.2581887 12.683407
1.9712272 -1.5208956 19.892315
-1.0277082 -2.3629308 8
-6.0635643 8 1.915062
-3.0539315 5.6613708 10
7.1846056 -8 6.3145914
-8 7.6306067 9.8003883
-1.8511763 8 6.613986
-6.9459472 8 0.24691343
-2.8429492 4.1063557 10
3.300024 -2.1667068 19.16683
-5 3.0687237 5.0508289
1.0885725 1.5190458 17.595869
-8 -6.5234389 1.9489943
-1.3742741 -8 6.0361328
8 0.74804401 8.4547338
1.7324333 -1.3679597 18.057472
3.4188185 -2.4480073 11.29426
7.3554888 -8 5.3159513
-8 -4.1838684 7.7240376
-6.3155627 -2.2490385 0
4.0648575 8 9.8199444
0.50916678 -0.24559462 20
-0.94300401 2.3135488 15.663577
6.6667175 -8 0.021160871
-4.5870724 8 5.8071489
-7.9359422 -0.6962924 10
4.9139814 4.9730654 8
-8 -6.1621208 3.4834399
1.171695 -8 0.3392525
-6.137177 2.9718778 0
2.9839671 -1.6399454 10.744616
-3.4884355 1.9846523 10.966711
6.4789901 -6.8606772 10
-3.5819464 -5 7.731442
2.6930194 -5 4.8166828
-3.0876617 -5.1100092 10
7.686552 -0.40145826 10
7.9850368 -1.6118727 10
8 -5.6764717 4.4270363
8 7.4595213 8.47474
-2.5575926 -5 1.5532689
-0.05826354 -8 0.36701459
-2.9928217 -8 7.1236277
5.2526283 -8 4.0607543
5.3176417 -8 2.0038505
0.94974566 -0.86668652 18.826206
8 5.372159 0.97606277
-6.4405918 -1.2074246 0
-4.6236153 8 9.7836876
-1.1767312 2.2833488 19.606657
7.9555173 -0.94967508 0
-7.220437 -6.8241982 0
-0.13542557 8 6.720284
-3.024195 0.62655735 8
-4.1374245 -5.1712122 10
2.4807572 -0.80126202 11.005379
7.6222296 -6.5990949 0
0.35877272 2.4817519 14.199955
0.99725306 -8 3.6548827
-8 -1.7955374 5.3809505
4.0062714 -2.2190084 8
8 0.32251167 3.9466412
-5.018877 8 2.0037744
-5 2.837574 4.3659091
-7.8020854 -6.0117331 0
-2.1951723 -0.044401705 9.999999
5.1011524 2.4578156 0
-5.6317873 8 2.2824788
-2.8531642 8 0.82404554
4.7223015 5 7.4955173
8 4.9284439 8.4599247
5.2386036 0.33731365 10
-8 3.5546579 9.3477869
-8 -3.1003335 7.9164028
-1.7968223 5.5880232 0
-1.2516375 8 8.9537992
8 6.5648394 8.2646551
0.0032653809 8 8.1696644
7.3109651 -0.84969002 0
-2.6291616 -2.2044663 10
7.0925264 4.2793598 10
-0.08774209 -8 1.2023501
-3.2584679 -4.0587502 10
-8 -0.034300327 2.2386529
5.5256653 8 9.0361557
-2.1437137 1.1145229 14.768817
-2.0189033 -6.6179643 0
-0.32245231 8 3.4118974
-8 -1.692672 3.7593083
5.1955962 1.0229821 0
-1.9632092 5 0.25649694
-1.3555977 -6.9959955 10
-8 4.9087214 7.6408167
0.59585482 2.3402419 13.468225
-8 1.8866254 2.0499701
7.16747 8 9.8953781
-0.83745694 -8 1.4034652
1.5032486 -1.2211782 12.152109
-5.7304339 2.794606 0
-1.1496353 -5 5.1857643
0.19854808 -0.3855812 19.780775
-2.3624408 2.1301427 17.328907
2.4355392 -1.6029761 8
2.4801366 -5 3.802453
0.69781518 -8 0.968624
5.0792031 -7.5631652 0
-5.9920917 5.8298879 10
-8 -6.0694513 7.0040331
3.8843439 -2.4695127 10
6.4890814 2.6819441 0
-3.044703 5 5.4548836
5 -4.230576 2.1160772
-5.9983859 7.2057056 0
-8 -7.1818228 9.5555611
5.5667329 -3.6310716 0
7.1656137 8 2.8763337
-6.6650972 -8 8.8214388
6.6669559 3.0241408 0
-1.7210503 0.84382761 11.276983
1.3479986 1.086669 10.829883
-2.8203042 -8 7.5046711
5 -0.43214226 1.6787499
-8 4.5062895 9.758729
5 -4.5837564 0.13334818
-3.1700025 5 5.849978
1.6490159 1.5945772 10
7.8451066 8 7.2642889
-4.7523279 -5.7494984 10
-0.23690033 -0.10669792 10.131632
4.7428379 -1.7651597 8
-8 -6.814158 3.2059696
-1.2638261 0.55099791 16.652174
5.5043216 8 7.5158539
-2.3047302 -8 9.654295
5 -3.4640379 6.1724758
8 -7.6595898 6.4795151
5 -4.0715189 4.8915901
-1.0774013 5 2.1036828
-0.98510432 -5 2.8389688
-1.3929452 -5 7.3707638
-6.9446201 -7.0885153 0
3.4373703 -2.395617 13.910995
-3.5351944 8 2.8700647
-8 7.2542386 7.7240171
-2.4280655 2.1216633 18.528667
1.1185222 -5 7.8086395
5 -4.345808 0.68139786
-8 -4.4597468 1.8567518
2.4362192 -1.8187001 16.681812
-2.3766475 2.1283069 10.12747
-6.6909547 7.7772841 0
5.7925482 -0.14403933 0
2.2945852 8 7.1893921
-7.8652616 2.463577 0
-6.2820444 8 4.8087854
-2.6008015 -8 7.8311591
1.3941954 -8 2.8480952
8 3.2234449 3.6606474
-5 -0.5801537 5.3163195
-3.2971087 8 0.909428
0.62687016 8 4.2173862
0.16901657 5 3.3889532
8 -2.6239648 8.2687283
-1.7809768 -5 1.2717934
-1.30278 0.57594603 18.754047
6.140132 -8 4.2109485
-2.1573215 1.123238 14.541834
-7.0464501 6.7831035 10
1.6504887 -5 1.1376543
-8 4.0367894 0.68593037
1.1741006 -5 2.4476867
8 -4.2899637 6.1086812
-2.0283244 -8 3.6401336
1.9797163 -5 0.8918829
8 -3.1404705 6.1100793
-5.4893036 1.2938735 10
-0.26130486 8 5.5827351
6.5378699 -8 6.4093547
3.0272374 5.289855 10
3.4291067 -2.3818445 15.76705
-2.7028749 5 3.2953019
-5.6727157 -7.1879091 0
5 3.1791983 7.65171
6.0161123 0.95476675 0
-0.64762163 -5 3.8385661
-3.764097 -4.0841932 10
4.7560825 -4.3582182 8
5.8776603 -8 1.4927523
-3.2183719 -4.7115607 10
7.1365604 -8 2.8596978
-8 -6.8766751 2.1377242
7.1780348 3.2269201 0
7.8112121 8 3.8203967
-4.0147495 -8 9.3233986
-5 3.3460493 1.6690375
5 0.87028068 7.8478494
0.89331329 6.4435296 0
-7.6440687 4.6710258 0
0.88244534 5 4.7659612
1.6921856 0.51302385 10.885715
5 -3.6977034 4.9510851
-7.0699053 5.3454247 10
5.2600336 0.72713339 10
1.8540885 3.9300971 10
-8 -1.7165124 6.0545249
3.5418377 -8 1.774264
2.4274354 -1.8130748 16.326885
3.1167402 -4.7019663 10
2.2787971 -5 5.853148
5 0.49184617 7.0932546
2.6782804 4.5725894 8
5.9319134 -8 7.961133
5 3.3222618 3.1986327
0.66485631 5 5.5570536
5 -0.95807266 2.634387
7.4099317 -4.3129506 0
3.6134632 -8 3.0171292
1.6855831 -1.3379545 17.306179
1.0278542 8 3.8661032
4.3048387 8 5.3491611
5 -4.340251 2.9085257
0.65789127 5 4.571578
-8 -6.8815956 4.1174779
0.070548475 2.4445105 12.013977
-4.8650913 -5 1.6096873
-1.4508662 8 2.931035
5.8642941 -8 6.6474433
8 -1.3116741 8.3419628
-2.7192357 0.48770106 10
-3.045614 4.1278667 8
-5.0792189 -0.14367309 0
8 4.2219152 8.3187904
8 7.2542467 9.8953943
4.3623018 -5 1.9612088
-6.2231364 5.6430635 0
-1.0549785 2.2990804 14.895422
4.9348488 -5.6990557 0
-0.83779293 2.3271432 13.854122
4.6552143 8 1.2478316
-6.2607341 1.920624 0
-5 -0.76903391 5.5177116
-3.2514796 0.28012928 10
-8 -7.3452773 6.3692894
-8 -3.5348654 4.4014511
7.6291456 -8 7.7309723
-6.1467948 3.8799369 10
-5 3.5491428 5.9978027
-0.32496345 3.6392217 8
-7.4406595 -7.5128493 0
3.1637163 -1.9395274 12.82156
-8 6.39644 8.5144663
7.4478173 2.4993546 10
-6.7402639 6.0939169 0
-1.6599555 7.566155 0
-1.2701912 -8 0.53447556
2.1150906 -8 7.7116642
-4.4767914 -0.36150789 8
-0.75703591 0.22642362 11.489325
-3.7022231 5 0.076381743
3.983403 5 4.8117909
8 -7.4126673 3.06267
6.3623261 7.20087 0
-3.0112281 -8 5.2947001
-4.3414216 3.7748291 10
8 7.387517 0.72642213
-3.4145298 -7.6977863 0
-0.49781957 2.3710711 17.546686
8 5.7487307 2.6550355
5.0000005 -2.3362181 6.4000049
-2.3011513 -5 5.5314531
-1.2342052 -1.6518873 8
-8 7.3604355 7.6329784
-3.6192071 -7.5130229 10
-0.76927817 2.3359959 10.052175
7.784801 -4.7235293 10
7.8022461 8 6.4070282
-8 -6.6349206 8.8295517
-8 -0.19578767 5.841363
4.7914453 8 5.7783694
-7.8015566 -7.1454258 0
-8 -5.4313078 1.4802004
-4.7286544 -8 9.9804811
3.3423142 -8 1.7399501
-1.0186099 4.3038397 10
5.5590186 8 6.0752802
3.6465945 2.07809 10
-2.3313155 6.7455182 10
-4.9667463 8 7.0714478
1.5187248 -3.1814075 10
1.3891563 1.0180726 18.742188
1.3096397 1.1506007 18.513081
-1.5442426 5 1.371231
2.6867738 -1.9791683 11.239214
7.7848482 2.9352639 10
-8 -2.7007365 0.070612319
-5.7987432 8 6.0880628
-2.7907305 4.6566648 8
4.3067346 -6.3230824 10
5 2.084938 1.1962304
1.2695141 -1.0714829 15.372221
-5.8067369 6.8533068 0
7.3860364 4.0470204 10
3.5561039 -8 5.9837537
6.1294088 -8 1.5631557
-1.6585875 -4.6146526 8
2.3305283 -2.2763133 8
7.0804005 -3.6807923 0
1.3959748 -1.1524746 11.501921
-5.6734223 -4.9985514 0
4.524209 3.9686804 10
8 0.3462137 6.1854424
-6.9199491 -5.7103844 0
-0.14107656 -2.2382357 8
6.6830516 0.1258409 10
1.795028 0.34162021 17.82851
8 -6.6276827 5.3341384
-5.5049133 -4.2054181 10
-0.47595692 2.4769692 8
-6.9699006 -8 0.39526862
-8 2.2898979 1.2367474
-6.5921516 8 1.5450937
0.35224915 -0.73184216 8
-1.605382 2.2279625 17.045307
-8 1.6643724 7.6461053
8 -6.9773588 4.9813128
-6.1757607 -3.4677551 10
6.2500296 8 5.6540594
-1.3795128 -4.0886502 8
2.4057875 8 4.999373
3.701622 5.283267 10
8 5.30231 6.3342633
-2.7936802 2.0744221 12.163923
5 1.1314164 4.587636
4.9409471 1.5546887 10
-8 -4.3179317 9.9999599
-1.9665911 -8 4.5454135
8 -3.6658041 5.1689539
5 1.1638017 6.021699
8 3.3793612 7.5065117
5.8528566 2.8147697 10
3.4265709 -7.4535346 10
1.7602844 -0.88754994 8
-8 5.5287776 3.9819713
6.3766394 8 2.3028154
2.1868732 2.9605427 10
2.7546914 7.0587893 0
1.2863283 -1.0822513 19.363541
-8 3.1809337 2.7086575
8 7.4733315 3.8312685
-2.2795804 3.3286238 10
6.2718787 -0.9701035 10
-8 6.9212222 6.2463684
-3.6095858 8 4.2532258
-4.1463189 -8 1.8923798
-0.3926084 -2.5890131 10
3.6044035 8 1.6605145
1.6532226 0.5779624 18.750076
-1.7749321 2.2060549 10.80658
7.0704532 -8 9.1904888
0.77914476 6.0007477 0
-1.0555341 -8 1.5810509
8 3.6909065 1.9041076
-5.2244873 -7.283452 0
-1.8289191 0.91291243 19.251637
5.2191925 0.37655675 0
-1.3655937 0.29147619 8
4.9738793 1.379733 10
-8 -6.6855125 2.2506139
-7.4335041 2.9593911 10
-4.3840303 4.2823257 10
8 6.2225714 0.64415824
2.0942349 8 3.912704
8 0.0049408078 5.7644916
-3.8061972 8 7.0376186
-8 -5.2438178 1.8947599
-1.0572945 -1.0436593 8
6.6101789 1.7620568 0
0.10894537 -6.3001332 0
-2.6667652 -5 3.2812166
-6.3089275 -8 9.2693596
1.1036477 -0.96525323 17.870085
-5.0000005 -4.5856652 0.90079784
-1.143898 8 3.6515355
-0.015549928 5 7.1807218
1.225273 6.6361661 0
-6.7762613 8 5.1779642
-8 5.7056956 4.6923456
-8 -5.9197578 9.1709986
-1.5680363 -8 2.2167227
-0.54351878 8 0.93076766
-1.623421 0.58351099 10
-3.96556 5 4.3275666
3.1870232 1.4529954 8
5 -4.8658695 6.0348339
5.3004117 6.3572249 10
-0.5918808 -5 2.1536303
-5.4198318 6.0022521 9.999999
-8 7.7671046 7.7491784
-3.178133 -8 8.6956644
-3.1871281 5 2.7674191
1.0808492 5.0049734 0
6.6288614 -0.45998585 0
3.948694 5.2705979 10
8 -2.0206146 2.0540462
8 2.814867 4.4396768
-1.1503508 -6.7750101 0
3.9458601 -6.5053992 10
3.3983912 8 2.4372053
6.1028748 8 1.3090253
-8 -1.7299612 2.093509
5.4634848 2.8857386 0
5.199646 -2.4593029 0
-5 -4.7056427 6.7419434
1.2384305 1.2692823 14.925359
6.148284 4.6127076 10
2.4650249 4.7018189 8
-0.3463695 -8 3.9551284
4.3396754 5 3.2256503
-2.9047401 2.5827541 10
-4.3391056 8 6.640029
-2.9587646 1.6365232 12.136633
3.2976029 2.2253165 10
-6.7985129 1.213696 10
3.3015308 8 7.1229897
1.6674676 0.55422068 14.805459
-4.4986191 6.729619 0
8 2.750598 3.987602
0.3745327 -8 1.0914969
-3.3813987 -2.0720005 10
-7.9734621 -8 1.5278267
1.1956797 1.3405339 10.612164
-6.9491067 -3.2648547 0
5 -0.69625235 0.018493995
-3.7032318 7.6599684 10
3.9689746 8 4.4509325
4.6507502 5.6207037 0
-1.3091321 -1.1394106 10
5 2.001833 5.5193758
1.4062899 -1.1590809 11.543116
-8 -4.9364934 9.3958988
-8 6.6575809 6.8978467
4.9337015 -8 0.28883398
-5 4.6224651 0.73498702
-5 0.051515579 6.5467458
5 4.5980654 6.2210531
6.3213677 4.9968972 10
-8 -6.8073702 5.9606085
5.4510689 4.19453 10
5 -1.1862863 7.413497
-8 -3.9887772 2.0553691
4.9860287 -7.8714938 10
4.3558073 -8 0.36315745
4.117816 -3.070663 8
-8 -7.4655271 7.6655831
1.0621926 -0.93870342 17.707748
-0.33887494 2.3916085 16.364161
-6.1126442 8 2.1272047
5.749321 -2.9823263 0
5.4575486 -8 7.9619508
-5.0875645 3.8625007 0
-0.65283799 0.15968978 10.134027
6.4813576 5.9227037 0
-0.13172698 8 4.5526056
3.089051 -8 2.8264921
-7.827652 -8 1.9714959
-3.2367477 -5 5.7682133
8 -5.9904118 8.396925
1.9676169 -1.5185834 16.107746
-8 -0.064176321 3.5593085
-3.379302 -8 4.4869967
-5.308219 -3.2842937 10
4.9643059 2.1199801 10
6.2078238 8 1.4983499
5.8215036 -4.2148099 10
2.7640171 -5 7.1382141
-5 -3.1512275 0.47965527
-6.5166845 3.4643633 0
5 -1.4152801 0.35984692
3.9349961 8 5.9544811
0.22913074 -5 3.3979216
-4.4504967 -8 7.5912437
2.9670177 -2.1586511 11.473923
-5.2997532 6.8431454 0
-2.4509857 2.1187017 17.524893
0.9831934 -8 1.752355
-1.0725605 2.2968087 18.420292
5 -2.1835585 6.1641107
5.4662905 -8 5.28757
-8 -0.94917881 3.6384892
-0.38413137 2.385761 15.828769
4.410183 -6.1291571 0
1.3683696 -8 6.9279499
-5.2350178 -1.8832617 10
-8 4.0006537 8.051878
1.6698228 0.55029535 12.718398
-2.4355392 8 6.4962864
-8 0.16007924 0.29339513
2.7015619 -8 2.9529471
-0.10877657 6.6690803 10
2.8784723 -1.4641201 17.984465
-7.6219645 -1.8050518 0
-5 3.2937615 3.380533
2.0694857 5 5.4174118
3.3633935 -2.2247767 10
3.6265137 -7.1428943 10
6.1423559 -0.98505569 0
-0.80993915 -2.5832469 8
-8 -1.1708908 5.2328501
8 4.4199066 1.7025163
-0.79151106 3.5040026 8
3.7938671 -3.0104842 8
1.6630074 -5 2.2169743
3.7887292 -8 3.8996019
-5.5569763 8 4.8965788
6.2882338 8 0.30073047
-8 -5.1941729 6.868947
-2.6000571 -2.3759682 10
-2.015022 1.0321022 15.062311
5.6406956 4.6934938 0
3.2418108 -2.0696845 11.482243
-3.7843707 4.1691804 8
-5 4.2340546 7.4720631
-6.4281783 -4.2487588 10
8 -7.2754126 4.2571831
-8 -5.6722236 0.12003192
0.85271686 -8 4.7305336
3.3189464 8 6.9247937
0.90794909 -5 0.99645901
-3.6224163 7.1497717 0
-4.8015099 -5 4.9996157
-7.0142674 -3.1563182 0
5 0.99716103 6.5608745
-5 -0.51264924 0.50802135
-1.6109519 -8 0.95335031
-6.067163 1.0930898 10
0.27789715 -6.7778611 10
2.1795754 -0.29929247 15.476198
0.6915316 -0.70131332 12.82827
3.1039734 -8 2.2646327
-1.3194447 0.58661884 18.552687
6.2260675 -1.6243653 10
0.42190957 4.1340246 8
-0.88439989 -5.0185657 0
-2.2029965 2.2120245 8
-2.2171001 -5 7.9350057
-5.7977428 8 6.4962769
1.171443 5 2.3164461
-7.3440728 5.4881763 0
-5 -1.9177494 4.0869308
-3.2142012 8 0.36159456
5 -3.686183 2.8360121
3.2074695 8 5.5009699
-5.7787652 -7.0836058 0
5.0157919 7.0278997 0
1.7712622 -2.7968106 8
4.4488926 0.49652129 8
8 6.1937933 7.7216592
-7.8633966 -8 4.8530898
5.1632266 5.0082788 0
6.5761728 -8 5.0171976
5 2.0692875 3.8230667
0.86491251 -8 3.1099162
4.3658333 -5 6.119597
0.22611207 2.4646106 16.746941
-5 -2.2865891 2.0749474
-5.808732 -0.39761758 0
5 -4.845418 2.5560861
-5 0.10164928 5.0682778
0.89334971 1.8444171 13.801033
-1.5810554 -0.96078616 8
-3.8240762 -8 1.1645458
6.5615487 2.5242801 0
-8 -1.6896727 8.0150671
7.6295042 8 4.7804046
1.2073959 -2.8404846 10
8 -6.5489678 3.7329979
5 -3.5072336 3.8104479
-3.1351783 5 2.9770956
-6.9357333 -4.5458107 10
6.4035606 7.3524542 0
-5.2895226 -8 1.2913016
1.4003968 -3.2058182 8
-3.1699276 8 5.5466156
-1.6606199 5 7.3098021
-4.0708466 2.9244907 8
8 5.5011044 1.7332959
1.8902793 -1.4690527 16.894926
-3.0907898 5 5.7691064
-5.6590948 8 6.6131954
-1.5863013 0.75752759 12.000106
-0.95744658 -5 4.8715029
-2.4786425 1.3290285 14.45352
-6.1406364 8 3.288476
-5 3.39433 1.7914935
-5.1217041 8 3.1584342
-8 -1.2147305 4.8311524
2.1588364 0.46425778 10
-4.1159501 5 0.067690529
8 -2.0035186 8.5395985
7.0077868 -7.8603153 10
-2.9919057 2.0488093 13.877043
1.6315614 -2.6670175 8
-5 4.1495399 3.8225732
2.7239552 1.6894678 8
-8 4.8431911 9.9527893
0.51895881 -4.0095296 10
-1.2912846 -8 0.23850138
8 0.038480759 4.0546741
8 6.9630785 0.73231721
5.654592 6.2159133 10
4.4893346 -7.256743 10
7.5798483 3.0144362 0
2.3864555 -8 6.9589086
8 -0.72222447 7.6957827
1.3150363 1.1416063 17.48246
8 5.9214916 6.3487659
8 -6.5869412 1.6015974
8 2.5727129 2.2966778
7.8177891 8 9.48736
-0.5895195 8 6.3611741
-5.8419247 0.84688759 0
1.2330793 -3.2667532 10
-2.0924137 -5.4149799 0
8 6.5487337 6.9430151
-7.0045223 -1.8301237 10
5 -4.8291273 2.5397966
8 4.1953459 9.2695532
-0.042854905 -0.23097444 16.78583
-8 -0.01464951 2.7189405
1.8215228 -2.8238573 10
8 -6.2383904 4.1106997
-2.9378414 2.0557947 13.14896
-6.5969696 -3.9046278 0
-5 3.7517602 2.7568889
7.9651494 -5.0752211 0
-4.1771784 -5 7.4801183
5 -0.85539806 1.9738607
-5 -1.8932559 5.1456923
4.9585986 -8 2.1609364
-2.6920633 -5.9715052 0
6.6966314 -8 0.011992586
-3.7548568 3.4277422 10
-5.7849131 -5.9834957 0
-1.6368456 5 2.1811256
-4.8353233 -8 6.2934971
-0.42322683 -2.8394222 8
2.3758888 5 0.075911269
7.7673903 5.628262 0
-7.8161049 8 2.6591792
5 -0.39742076 1.7152811
-0.3469193 8 2.4287601
2.8694315 8 0.78695953
-8 -3.7079492 5.720427
-8 2.979125 1.6575795
1.6413009 0.59783196 18.399815
-1.5331173 8 9.7092018
-1.4323376 2.181927 20
-2.7495224 5 0.87707084
-0.75253987 -4.376503 8
1.6949228 -2.1977432 10
1.8887534 -0.35847461 20
8 2.1702158 7.6540403
4.1088686 3.5836964 8
-6.0354919 1.8049849 0
-5 0.065773249 1.9648075
7.9682541 7.4429355 0
1.0666132 -5.809505 0
5.7277656 7.825314 0
4.465435 8 0.97327411
1.7226158 -3.928489 10
8 -7.2333851 0.33544511
-4.6609039 8 5.7064877
0.82089496 -8 7.7336073
-7.8826532 5.1027393 10
4.8997016 5.8142686 0
-4.957015 -8 5.9471006
-5.5482945 -1.1648554 10
-2.3352346 -5.7259979 0
8 5.5600052 1.9601464
2.0850422 -5 0.19406652
-8 -4.6137061 7.0304418
-5 3.8842022 0.33463335
2.6675107 -3.9792209 10
6.5993996 -2.8822935 0
0.28217682 -0.43914154 13.449935
-3.6219614 8 0.22864163
-8 5.3552375 2.2498972
0.22697815 2.4647229 17.265285
-8 -3.7629833 4.1875863
2.358423 -0.26824963 10
8 -4.6739292 0.16364358
5 4.0417433 0.023135651
4.830997 -5 6.0446668
-1.9303923 6.5149298 10
4.3280454 5 3.3822417
2.4155161 3.3930225 10
-8 -1.6376119 1.9468268
8 -0.71940684 9.3555317
6.6995277 1.8996341 0
4.2402368 -8 7.7671576
2.2117982 -0.35299718 15.956244
2.4208355 -5 7.7545619
-4.3587465 -5 7.5566754
5 -2.5930378 1.7447917
3.7431462 -4.3188534 10
4.3436146 8 3.6918962
2.4852138 -7.9951472 0
3.0701637 -1.7836062 10.52296
8 -0.95091569 6.9172196
-2.2354784 2.1465476 11.621021
-2.1981933 2.1513653 15.790828
2.6260302 -1.0433836 12.312504
8 -6.4891548 7.9784265
8 7.7743101 5.2141643
-8 -3.3271616 4.5759068
-2.6415391 -5 2.10783
-6.0817637 -8 2.2451715
-1.0799841 -8 8.7243557
-6.3457685 5.7321291 0
-8 4.5161819 7.7513413
-2.6772432 -6.8960004 10
8 -3.1827917 7.0933561
-8 1.7363174 5.793561
1.7238141 8 3.1030631
-0.6833744 5 1.2963595
8 1.5457449 2.1601305
8 3.7651358 3.0330224
-8 -3.242538 1.4762632
8 -1.3514576 2.1667609
8 -4.2748508 7.7382135
6.4491444 8 3.3644068
8 -6.2982078 8.9202175
5.846611 -8 1.7216188
1.4639053 0.89349085 19.419239
6.5175118 0.26481867 10
-8 4.1312537 9.432374
-2.8459501 8 5.5567384
5 -1.5628492 5.6304007
-8 5.7120366 0.45201916
8 4.8053379 3.6084015
-8 -5.6855526 1.6231744
-4.6056972 2.6516933 10
2.6750865 -1.971683 11.453765
2.4061422 -8 3.6121554
-8 5.8215971 7.5889897
5.736443 -1.1633248 0
5.9846969 1.5386829 10
-1.0981473 2.2935026 18.771132
3.1519134 -1.9198556 13.103063
0.37929034 1.8626366 8
-6.0958347 8 4.6676054
0.72791344 2.3645773 10
4.8326259 -6.9889474 10
-4.0639739 -1.4031504 10
-5 4.1885624 1.5841274
8 -7.9788289 4.1953273
-2.6396756 6.6248579 10
8 0.4518261 2.4986844
2.4821289 -7.9699183 10
1.0078335 1.3159497 8
-0.56037784 7.498559 10
1.4222459 0.96292365 11.02836
-5 4.2848225 6.4804244
8 -4.6744595 8.5759706
0.90523863 5 4.2079782
-8 5.5309916 5.3520255
-8 -0.47458053 3.7218959
1.4678895 8 4.0980463
-2.5878382 -5 6.0625086
-3.5877104 -6.3557301 0
5 4.6354995 7.3958669
-8 3.0736639 4.4910097
3.7893641 -8 3.1477997
-0.96177596 -0.53148943 8
8 6.5208111 4.1123924
4.2665815 -4.3380189 8
-5 4.4658165 6.0454798
-0.76957798 -8 4.9671941
5 4.1133385 2.1236191
7.2228012 2.2966886 0
1.6873565 -8 6.3844962
1.5028526 -8 2.4393809
3.4068115 -2.3446856 17.21727
-6.5715671 -8 7.115438
-5 -3.0170593 7.5212054
-7.288619 -8 1.0033561
1.6952777 -8 4.7602081
5 1.6983304 2.3007147
-2.9850945 -1.7488394 8
8 -5.2027473 6.26896
-1.7273797 -5 6.5290556
5 -3.878026 5.1183758
5.4442563 1.7128079 0
-6.4641562 4.1243005 0
2.2735188 7.4021749 10
-8 0.9544096 1.6417301
8 3.1621389 0.19945006
-8 7.4818459 5.5908446
1.8480735 0.25321054 18.421196
7.4475636 7.8425708 0
-3.5960062 -5 4.3283749
8 4.4650116 0.24603611
-1.2899275 0.56771475 17.800228
-3.8784351 8 8.0435829
0.15998359 2.4560664 18.515696
2.3921278 5 5.5088944
-5.3481979 -8 6.9456534
-7.640368 -2.699635 10
4.6849623 -8 2.9275935
5 -0.75571924 6.9448581
5 -4.4238358 5.6124349
4.384295 6.6681843 10
-3.3677659 8 0.9204942
-1.220307 0.52312613 11.630867
-6.9715881 8 2.6157026
-5.2354321 7.4571414 10
8 1.241649 6.0623183
7.3309107 8 6.2326393
-0.47462845 -6.975544 0
5 -4.5676355 2.6734023
3.4495018 -3.1233046 10
5.0152144 2.3358579 10
3.4699631 -1.9595561 8
-5 1.2348628 7.4010334
-8 2.7883828 8.924921
7.2860899 3.4800892 10
-5.4373493 8 5.5727396
-8 6.5100489 1.4860959
-2.415184 -8 0.72073519
0.9842881 -5.0812769 0
8 -7.3010988 2.5803471
2.008039 0.82641327 10
6.1603794 -8 8.2487555
-5 3.0018377 4.8701267
8 -3.7921059 4.0804129
6.7862134 8 8.1989183
4.1549106 5 4.6674271
6.0050087 8 3.2585745
2.5749378 -2.7859812 8
4.7459974 5 1.6571343
1.3742542 -0.53992885 20
4.6677551 -1.4744952 8
4.9201574 8 9.0734577
7.6503472 4.2380614 0
-8 6.8804698 5.6550412
0.78079838 3.5121448 10
-5 3.3113785 3.8009028
2.7956276 5 0.37942693
-8 -6.3509789 2.5977895
-5 -0.57483435 0.14721632
4.0526733 5 6.841465
8 -7.4790602 0.85592699
-0.48384762 -0.44860965 10
-5 2.7038548 0.76562929
1.863677 5 7.3777709
0.63142419 -5 4.6393933
-5 4.7590847 5.8858294
-3.7487268 -8 1.8247741
2.487143 -1.7151582 20
0.56085789 4.1872997 10
-5 0.61274898 1.8851986
5 -2.1730256 1.322193
-4.5099211 5 5.3812089
-0.27881718 -3.7955976 8
5 3.4210677 3.121856
-8 4.3995099 9.8567677
-1.9802547 -8 2.2072663
5 0.2543543 3.0551589
-0.41124958 0.0049642622 14.283869
5.8799028 -2.0639749 0
-3.4850349 8 0.69089293
-5.4372687 -8 0.24399613
1.0598905 1.5668491 15.316834
-1.5120575 0.7099781 15.207964
-3.1509161 8 8.6019773
2.6124263 -3.2564654 8
-5 -0.91582501 1.2511063
7.2710533 1.1181827 0
7.5058899 -8 4.5432749
8 -5.9037757 2.5567291
-5 -4.9415774 5.1267586
8 -0.39235139 3.6286502
7.9305367 1.0606823 0
2.2418222 4.4346623 8
8 -7.1204243 9.5647717
6.8382883 8 9.3738508
-5.8608313 -8 8.8717117
-1.7181137 2.2133965 16.796902
-2.8168149 0.80328465 8
-8 -1.2117578 4.2384768
-1.6912352 -8 8.8213177
-5.9750414 -8 5.7291937
-2.5412457 -1.761245 8
3.1054513 8 1.0772324
-6.7879944 3.2683058 0
-8 -1.0859628 3.164088
5.7458401 -8 8.3149118
2.7019925 -0.7823053 8
-3.8473082 8 8.9590683
-8 2.3440857 7.5298877
5.9345274 0.47419009 0
-8 7.4625306 9.2559252
-4.3158321 -5 6.6217232
8 -0.15528393 2.9967813
4.995245 5 6.6190329
-5.2297316 -5.2620711 10
8 2.6068695 7.5236659
-5 4.050539 3.0855601
-6.1173654 4.4783597 10
-8 -4.1639099 5.4924498
2.3876212 5 7.1369228
8 6.6911602 0.84412509
7.4545064 -6.9280005 0
6.4672537 8 5.2142162
-4.5848103 1.7886803 8
-2.3510799 1.4317098 8
0.50094092 2.4984317 14.032494
3.8914413 -5.9696388 0
0.53821003 -5 0.13226032
-3.1717389 1.7729228 11.44785
-8 0.66316128 9.8227253
-2.8861549 -2.1020734 10
7.7512426 8 7.5595241
-0.59305811 6.9760275 10
-1.704127 7.2357149 0
-1.0124178 8 8.9342594
-2.6229267 -4.548758 8
1.4313266 8 2.7627826
8 -3.2211177 7.3984938
-8 1.0028579 9.8505678
3.6343188 -5 5.9619503
7.3940234 8 4.2435875
-5 3.3051662 2.1887281
4.1093216 -5 7.6649723
-2.3350167 -8 0.79511249
8 7.430954 2.002912
3.9723735 8 0.47147155
-6.1767979 -8 5.3738718
0.66690385 2.221827 11.503044
-3.6268826 1.1800143 10
-3.7213318 -5 1.9682204
5.370697 8 6.4799776
-7.0221243 8 2.0815148
8 5.4133291 1.3793818
-8 1.9897087 9.0379601
0.9594574 -2.7410688 8
-1.6741843 -8 8.3919697
-7.4916878 -4.6654449 0
3.386188 -6.7248278 10
-1.6004941 4.6611776 10
-5.22577 8 5.19452
8 -4.366168 1.2322282
-8 1.5780218 2.9552701
-5.032753 -8 2.1239803
5.075376 6.0973864 10
-8 4.2119026 1.009169
-1.6958292 2.2162759 14.527507
-6.1484728 -8 8.6767921
4.9616041 0.41226417 8
0.53366995 -0.60021055 16.01099
-5.6619792 8 1.3840258
-5 -4.7712421 3.7057486
1.6879114 6.406518 10
-5 1.8556786 5.6602941
5 1.3454162 2.0959656
-4.1014891 -5 6.702436
6.6435885 -8 6.0363793
-3.2857475 -8 0.99832833
3.0026188 -3.9464488 8
-6.5971766 4.7220669 0
-5 3.3761816 7.6163721
-5 1.9272466 3.7377181
-5 -0.24272668 0.84150267
4.6816769 0.23770261 10
5 0.2030654 1.0055166
8 -3.1075044 8.2332745
-1.4260464 8 4.7433133
8 2.9045992 5.1527743
-2.715786 8 5.957942
3.0165043 -0.66855061 10
-1.5826517 -6.0543308 0
-1.8280602 8 9.5082016
-2.7190902 1.4830235 12.877554
0.048150778 -8 6.8547988
-4.9882903 -8 5.9473839
4.7227268 -4.1858797 8
8 -5.4765015 5.5879726
0.66147667 2.2308722 17.424807
6.3708272 5.3922873 0
4.4961596 5 5.735076
8 -5.0220995 9.2153769
-8 -7.0918126 7.0289087
-1.1400462 -2.0672312 8
2.99617 -1.6602834 14.113492
2.2375469 1.7757726 8
1.4896905 -1.212495 10.065582
8 -1.9079494 1.4004996
-4.3817291 -5 2.4690552
8 1.7510147 3.4790921
-5 0.090507507 4.5774264
2.8399239 -5 0.47270918
-1.5688148 5.8823419 0
8 5.5203805 8.7664909
-3.028446 -5 2.9144645
8 4.5736303 5.752604
8 -5.909977 6.0710783
8 -2.1915867 4.4278326
3.2641335 0.99432629 8
-1.4228821 -3.4772336 10
-4.9359179 -5 7.2465034
3.9062521 -3.1343141 8
-6.1628914 3.2734215 10
-1.9747357 5 7.5592141
2.2412612 -5 1.1965375
-8 7.5230713 4.8373008
-5 4.3167028 2.1567669
1.9384022 1.5021594 8
-0.11678648 8 3.1982172
-3.4572432 1.9557744 18.346893
7.9348383 -3.4814715 10
-5.5475574 2.1627607 10
-8 -4.3817344 0.63489586
-5 2.9315109 7.8011513
-2.487587 8 7.9804683
-5 1.6212134 7.764915
-0.53688729 0.085429192 19.253416
3.7442 5 2.2888
-3.2704401 -0.71534193 8
2.7713799 -1.2856333 12.194128
3.4929364 -2.4882278 17.182177
2.4805779 -1.84711 15.673268
-5.4347181 1.4511247 0
8 3.0215483 5.6748266
4.0373831 7.2795706 0
-5.4991498 0.6960268 10
-6.8063436 -8 5.7855091
-0.09843564 -0.29710364 8
5.3891544 4.129149 10
-8 4.4273872 9.6067562
7.3809328 1.1557617 0
6.6885633 1.7977047 0
-8 5.0223432 6.9532251
-7.3371096 0.52145767 10
-8 -4.1363525 1.4559729
7.4004998 6.8754711 10.000001
-0.92535591 -1.4997796 8
5 2.6702366 3.0121143
1.1655421 5 2.1326892
-2.7120247 -6.0557709 0
0.94888175 1.8050895 10
8 -2.7299397 6.1249905
0.38162422 -0.50283247 11.716459
4.5614777 -6.840251 0
0.87199789 1.8800035 14.451819
4.125701 5 1.1384505
-2.2866163 1.2060453 19.214064
5 2.0792425 7.4976954
-5.0187674 -7.3175011 10.000001
2.0854533 -5 3.9930863
-0.18252635 5.665514 10
-2.6441796 -6.8980379 0
-1.4908798 5 7.3341317
-2.262368 -8 5.5396771
2.9944773 -1.6574621 10.229877
-8 -5.3369703 9.6306715
-5.6290884 0.6706686 0
-8 -1.9987249 0.55254221
2.2805042 -1.7189724 18.748541
4.3040013 -5 2.3937397
-1.2670641 8 0.9830457
-3.9737153 0.7568475 8
-8 -3.3596256 4.4916196
-3.300226 1.8552126 15.732888
-8 7.9538908 2.65189
2.353811 -8 0.32046419
6.3944988 -2.4833326 10
4.4410501 7.9907188 0
8 -1.9856429 8.278532
-7.2072897 6.2981257 0
8 3.1737957 6.914063
-0.15475512 -8 6.6958089
2.0631595 -1.2526819 8
0.22510007 2.4644802 13.395082
8 -1.7470684 9.5826607
8 1.1574621 0.29583329
3.8298798 5.8243895 0
-8 3.3412097 1.051234
-8 1.9631262 4.9129224
2.1572816 -0.26213622 18.51717
3.6495631 5 5.8270369
-0.84137821 5 3.0543096
5.7993979 -8 9.6216774
-1.6925006 2.2167058 12.030195
-2.337147 -7.3585882 0
-2.7711167 8 1.4236981
0.28411508 8 7.2310886
-8 -3.1458356 5.2049513
0.64997768 6.9615965 10
3.9053667 5 0.75302988
8 7.5673208 2.7550249
0.74737477 2.0877085 12.808068
6.9720244 7.9457526 10
-7.296309 -1.7229435 0
3.3676784 -2.2794638 12.741449
-3.5841842 -8 6.8472862
-3.3931725 -2.8171337 8
6.422524 8 0.18110216
-1.7598143 2.7141714 8
6.8703356 2.0094907 10
5 -0.31005561 7.1007247
5.1896372 -8 5.4531965
-4.8531871 6.735321 10
-5.8248615 -6.4476972 0
-7.9819617 -8 0.86528033
-8 4.3526211 1.9094983
-0.93350434 2.3147762 17.648819
1.9165473 -6.5215955 0
8 2.9557161 4.2002206
3.7626972 -3.4722743 8
-7.0984306 -0.53312445 0
5.0000005 -2.3764515 6.8085084
-8 -4.1113963 2.4554696
-1.9506698 6.8434048 10
-2.2740536 -7.1743579 10
-6.1482735 -1.9117901 10
-1.6978922 0.828996 13.830418
-8 -5.4458833 0.98858774
0.50340223 5.8712788 10
-0.63276446 5 5.3094053
-5 4.3890772 7.597857
-1.1343081 8 1.4889783
4.7311087 5.7264996 0
5.8368788 4.808866 0
-5 1.0016557 3.1579218
-8 1.2044632 7.5756745
8 -0.20581913 0.82617593
7.5905104 -8 4.6900764
-3.4430354 -2.9269838 10
-1.9912906 -5 7.7018461
-6.6446824 -8 4.9317164
1.0879271 -8 3.4974213
-5 -3.7820315 5.3190546
-0.71410751 6.8135476 0
-5 0.40320992 3.0628858
-5 -1.976447 2.6180205
7.9908853 -2.9938798 0
-0.94404018 0.34619075 19.74939
-5 1.147951 5.4983525
-1.561175 -4.8516045 10
-7.3990459 -0.23285389 10
-8 6.1949215 5.6883087
8 -0.53855896 9.7379532
-1.099191 0.23120621 8
-5.8161283 -5.3132553 0
1.0241668 6.8450603 10
-5 -1.563271 0.71574402
2.5589809 -6.933589 0
-0.44420624 8 9.4128113
4.3745928 5 5.3531666
5 -1.1926033 3.8307736
-8 4.7477345 8.7786779
0.063606977 5 4.766747
5 -0.037229776 0.4323383
-5.9471846 8 5.0463095
4.4423094 8 6.9603896
-5 4.3507166 4.7130017
7.1704035 -8 5.3386436
8 -2.9372525 4.5437274
-4.5997391 5.8434067 0
8 -0.69996214 7.4481611
-8 0.70554245 3.1939435
-3.3028402 -0.58655834 8
7.2872791 -8 5.9323354
-8 5.5130701 7.5728621
1.020777 8 9.6601791
-4.857645 -8 9.6488132
2.8348253 -1.3913753 18.092091
-3.2346525 -5 7.2268915
-4.5821495 -8 4.4245677
-8 -7.6661105 8.9382086
0.74228841 2.0961862 16.547657
5.7842622 -8 7.5519214
-0.33633184 5 3.3309083
4.529583 0.7675162 8
1.5611967 -5 3.29776
1.3484163 1.0859728 16.529102
6.4814234 -3.0461581 0
-2.1827009 1.1394923 10.605076
8 -0.049623489 2.1817331
-8 -5.7980957 5.7826548
-8 -7.6662531 2.5136709
3.3396444 -2.2327409 13.981489
5 -2.3793793 0.57715279
3.2190149 8 9.0804453
-4.4688234 -5 0.71088278
-4.6590204 8 6.4563909
-4.2049642 5 3.1172066
5.385613 -2.368875 0
1.6870489 0.5215854 14.589661
-2.1123693 -8 6.5605826
-3.5263624 8 6.4145432
5.4244537 2.0230012 0
3.8631904 8 6.8389711
-6.9196963 -8 7.2773352
5 3.8326092 4.760159
1.2444687 5 3.9860857
-6.9580688 -0.7668736 0
1.3290339 -4.8324962 10
-8 3.6860409 9.5598593
-7.7418957 3.8523045 10
-0.30915421 2.3954487 15.035078
-7.0669365 -8 0.54430896
5 -0.79146385 4.8528996
-1.3379304 0.59845823 14.176632
8 1.8627548 5.7260842
2.2444403 8 4.8052506
1.7806427 -5 1.2503138
-0.75442392 8 0.25421381
-5 -3.9853067 6.2922392
8 -0.063389063 2.7895632
-5 4.4108849 0.92690802
-7.5021791 -5.9303274 0
-6.9722977 8 4.5794644
-7.8864751 -3.2843356 0
-8 4.3568711 1.1142092
-2.1829414 0.80218089 8
-1.6870761 2.2174067 16.228739
-8 -1.8158889 2.1562786
8 -4.6306124 5.2157869
-8 -6.5759406 1.6132877
8 -1.8528558 5.0570984
-0.13679206 -0.17081237 17.428949
-5 2.970561 3.794975
-7.4506569 -8 2.9160652
2.7165098 -8 0.0090749012
3.9784098 8 8.7164707
-8 5.1475501 6.6385136
1.4663715 8 1.4165348
8 0.67978001 9.7173309
-4.8532338 5 4.9965897
-6.0243998 -7.9021215 0
-3.2150216 5 0.14042249
1.4499546 8 3.3367176
2.7987609 -1.331268 15.438866
8 2.9384089 8.3865395
8 -2.561065 9.5020599
-8 -3.9646161 4.3378849
5 -2.6733587 3.9886615
4.0425248 6.6685176 10
6.2873464 6.6873384 10
-1.700343 0.36021101 10
-8 5.4613771 4.8850398
3.8599491 2.0983539 8
8 1.0151165 8.6224165
7.3834867 4.209856 10
-0.74689364 -8 2.6993504
3.6163998 -3.7731907 8
8 4.4583025 3.0549405
-0.19041377 5 3.6282251
6.457305 -3.2494843 0
8 3.3425426 0.74304831
8 -1.9736228 6.5736227
4.4691143 8 2.8496571
8 -2.4677496 2.7672136
-1.213295 8 3.4635882
0.95948899 5 2.6680825
8 3.6808825 2.1189394
2.8555565 8 9.6673155
-3.3902559 -5 0.032248497
7.0916543 8 2.7580261
-3.735898 5 2.413239
-8 -4.1422086 0.82747072
8 -3.4593468 1.7299635
5 0.88556647 1.7490464
-2.5458677 1.3720829 10.252687
8 7.3318043 6.7113872
5.4136672 -8 5.3101573
2.8914618 8 0.5186516
2.5094416 1.9787297 10
4.7788563 -8 0.34648639
-3.7765074 1.4647484 10
-5 -3.9590414 6.7237496
-0.61336732 5 1.635365
2.9990163 6.2466273 0
1.7516911 -4.4509544 10
3.6708493 8 1.7740512
-8 3.3933229 8.8052225
7.4669018 2.1677103 10
-2.1822407 2.1534264 16.098312
2.5993633 -1.0014203 8
-3.8529539 -5 4.1895838
-5 -1.3169203 1.9551711
-2.8096886 8 3.7426753
-0.66084099 -8 9.7546911
8 -1.2917833 2.748662
-0.019073606 2.5215993 8
2.2696838 3.1793797 10
-8 -3.7573166 9.7561731
-0.60210705 -5 1.7879105
-1.6277663 -6.698822 10
1.0139004 -0.90777463 14.084836
-5.5654135 -8 4.3930869
-2.6563835 2.0921621 12.977652
1.0051346 1.6581092 10.546063
-1.1539972 -1.2810687 10
0.71958017 5 0.88943988
0.0036672354 -6.6804261 10
2.9703138 8 1.7940259
8 2.8929386 9.9036894
-1.3288629 5.385704 10
0.46157697 2.4950354 16.176727
1.6691828 0.55136216 11.318614
2.3382025 8 5.578661
-2.7196114 -6.6800141 0
8 -1.5535908 3.7005577
-5 -4.4615231 5.9412041
8 0.79831028 4.3274336
-8 1.0594031 3.7002461
0.3311429 8 4.884943
0.13646221 8 2.2630215
-0.29619169 4.8610024 8
-0.8943494 5 7.8103275
0.92711449 -8 1.283778
-1.1919881 5 2.2362716
5.2645473 0.21624649 0
2.164813 8 9.6992197
8 -5.0390472 3.4353635
-5.5251493 8 8.8674707
5 -4.5881882 2.2511902
-0.029637337 -5 2.4597621
-7.9234204 -2.0866175 0
1.3540349 -7.8465886 0
-8 -0.25327539 1.6230097
-1.0579003 -5 3.3817303
2.0300806 6.8908205 0
3.5694678 8 4.7922726
1.5969954 1.6733969 10
0.54596996 5.0747542 0
7.6171474 8 5.9106627
6.3662386 1.06057 0
6.0002613 -6.0316205 10
2.2851121 -8 9.3870306
-8 3.9558158 9.6409674
-4.8342156 7.3221698 10
7.9843445 8 4.8523502
-5 -2.8348517 1.6576838
4.4159818 -2.8789871 10
8 2.2517776 2.9745638
-1.1301348 6.3295517 0
8 0.34749126 3.1492193
7.8209796 -8 6.9103241
-8 3.791224 8.2148485
-3.6089106 8 1.2221754
-5.8137732 -8 3.248116
7.5108018 -2.5741649 10
6.7711287 1.2137582 10
8 4.1940527 2.9143786
2.4049814 -0.6749692 19.244228
-5.9461579 -0.2443465 10
0.46750522 -5 7.4295149
-0.89269161 8 6.3083248
-6.1641326 -0.1095655 0
-2.8615658 8 1.3093251
-6.2684741 -8 9.5453262
-5 -0.42797327 5.7110028
8 -0.66674948 7.4500017
-8 -6.9782248 2.8590977
-5.2841272 0.54060459 0
1.8120395 -3.3034477 10
-4.2472582 -5 2.0972939
-1.649515 0.79801285 12.762556
3.6332798 -4.0114594 8
-8 6.2237449 1.9802675
2.1202333 -5 3.8257241
-3.2182975 1.8027415 11.280972
-8 -4.5773792 7.9292417
2.3647513 -1.7729285 14.566917
-1.7096617 5 3.1755207
-4.3643031 5.2662272 10
-3.4312661 4.9733434 10
5.2032585 -6.1355143 0
4.4039936 3.6010089 8
5 -3.2910845 6.1904712
0.34644115 6.8775678 0
-8 -3.393465 5.9794998
-1.3842254 -5 3.4555614
-8 -3.8877792 3.1645463
-7.9884892 6.021965 0
8 -4.7695594 6.647109
0.51152283 -5 2.0253816
5 4.1274581 1.3629982
-7.8218613 6.693563 10
1.7125009 1.6023972 10
-6.1321659 -5.7982483 0
-0.34033573 5 5.3552618
-0.30629635 8 8.5022488
-4.7276468 6.5376463 0
-0.0351125 3.9196036 10
3.3811276 4.0720844 10
-2.4209528 1.292081 13.187445
0.6636914 -3.2075787 10
-5 0.21702862 6.8078785
0.94617569 -8 3.0200899
6.249052 8 8.8845797
-3.8870568 5.7281523 10
-0.18321425 2.4117217 13.961223
7.1356201 8 0.90684891
-7.1656704 -8 3.8009121
1.5712441 -0.26859057 8
5.5163732 -8 1.5300037
-5 -1.5149534 3.2053275
-5.3661194 -5.8542624 0
-7.1143322 2.1994071 10
1.6969876 -5 1.677875
-5 -1.6283945 0.16223145
-5.6818647 0.75849438 10
0.20109789 5 3.9576619
-3.7835217 2.8665209 8
1.8014586 -5 5.6169071
6.803658 -8 3.820322
8 0.32028136 5.2550182
-3.9763031 -8 6.8739409
-8 6.2931967 7.1205993
-6.9691138 1.5965652 0
5 -2.8035457 2.1125548
-7.8420615 -2.2092247 10
5 -4.9824915 4.6223712
6.9975033 8 4.5631461
-8 3.6973214 0.74768913
-8 -4.7967935 4.6971216
-0.91490704 -7.5009189 10
-5 -3.8017805 7.8924398
4.2264118 8 8.9578266
-1.5245806 0.5381639 10
-5 1.0594039 4.3822975
-5.6458592 1.0789014 10
-1.2742282 0.34054875 10
-4.133244 -1.3417326 10
1.63761 8 0.93898714
8 1.9735322 6.7814779
-8 5.0422959 1.7495252
-6.5878472 -0.96156251 0
2.0192559 6.376853 10
4.5674205 5 5.5561886
2.6625473 5 2.5217211
3.4327774 -8 7.1587281
5 0.17320061 7.0507655
5 -4.4337997 1.2268007
-7.7334709 -1.8596377 9.999999
0.48958075 2.4986537 11.609749
7.080883 5.43683 10
-5 -4.9862852 2.3732147
1.9634824 1.7204638 10
5 3.5472279 6.7486143
3.9840693 5 5.4806857
-1.3130531 4.8837595 10
-1.877033 6.1735158 10
-5 -1.7122999 2.312839
-8 6.514164 7.4466949
-0.49952531 -8 0.48790798
-4.313798 -8 0.24647786
0.88181925 -6.0282516 10
-2.2395918 -7.0778718 10
7.1846046 -7.1774836 0
1.540588 8 3.4700894
4.2786856 -6.43787 0
7.8793974 -8 2.6093752
8 6.7354898 4.9128838
4.4548559 2.2338026 8
4.0041761 4.9999995 0.59774846
4.214654 -5 4.8923864
-5 -1.1923766 3.0364699
-1.6978425 -6.8340201 10
6.1241593 -5.1454763 0
7.0949888 1.1379098 0
7.819736 -8 9.705966
8 -3.4165668 0.23935133
8 4.5827007 7.3273454
-2.3797393 -8 1.3696369
1.7989063 4.6530857 10
4.9613314 5 4.4173393
6.2043309 -8 1.7414178
1.8069022 0.32182956 14.428871
-8 -4.437211 1.4070293
5 -1.1202097 1.7388645
1.0985075 -8 2.816376
5.5838647 -8 0.68784803
-1.6909281 -6.817946 10
-6.9537754 -8 8.4725637
-2.6709318 -3.6680758 8
5 2.423475 7.8464146
5 4.5155945 2.1447208
-4.7899919 -7.4053974 10
-6.8695536 -7.3213034 10
-5.3136721 8 4.5666161
-8 5.9014797 7.7570863
-3.427114 1.9925756 19.054367
2.9668143 6.7568035 10
-1.8518426 2.1961174 15.519019
8 1.1654835 1.6734055
-0.91760612 -1.9549229 8
3.1696675 -1.9494457 19.257816
8 -0.0081472397 0.60656154
1.448308 -1.1859914 19.625252
-1.1009884 0.44670841 16.076492
-8 -0.38272816 4.495316
5 -1.7109218 3.5500503
-5 0.93805289 0.27074814
7.8644953 -3.9713001 10
6.123229 -1.8606626 0
1.3519037 -5 6.4097557
-8 -1.0539874 9.2913609
-2.280097 8 8.1799545
5.9494219 -1.981781 0
3.7078743 -5.6853037 0
7.0479913 -8 8.2540998
8 4.9334078 5.3693762
1.5378575 -2.3698673 8
8 -5.6472526 2.976378
8 0.054735184 1.5772135
5 -3.7573738 1.2329012
2.7261281 7.3280354 10
-5 0.40553772 2.0145721
-1.9234511 5.1554198 0
2.582968 -0.97161317 14.412335
5 -0.12483799 6.5473385
4.8656654 4.9999995 3.8404255
8 -0.11390853 2.2409182
4.202302 -8 9.257103
-0.10923958 6.4484086 10
-1.6689253 2.2197523 17.327225
-0.29451394 -8 2.6382694
-2.0812883 8 5.1011081
3.3305209 -8 6.5622921
-3.9450109 -1.8006747 8
8 2.79282 3.6122911
-3.6739354 5 4.8010888
4.4295216 4.7881727 8
3.0256662 8 9.6235371
8 2.5754175 2.0500534
-8 6.0959477 1.8164372
-2.2457352 7.7172413 0
-3.2050571 -8 7.7451253
-5.6885843 8 5.8241906
1.3347863 1.1086897 11.069144
8 -0.2912004 2.8139114
2.1215632 -8 0.21710657
2.26598 5 0.31600434
-4.7910132 5 5.6515589
3.8744235 -5 5.7891397
5.7022223 -8 1.4495089
1.9096948 -1.4814873 17.588577
1.2651647 5 7.0379086
6.2482901 0.27756667 0
-8 3.5935395 6.6276484
-7.3386226 -8 6.7296939
-5 2.4908304 2.5465884
1.187399 -1.018892 14.561904
8 1.568614 4.1082716
8 -1.8904345 2.9147642
-4.2420597 0.81701958 8
-6.3766603 -0.5326522 0
4.7589021 -8 7.2758393
-2.0788965 8 6.1631942
-6.5488853 3.670748 0
-4.5423393 -8 7.8288479
-8 -5.2272253 6.078723
-6.8692946 -8 2.6516724
6.8289399 8 1.9695616
-8 -6.348052 4.3573198
1.229918 -5 6.4348946
-0.4174163 0.008913815 13.291025
3.9961498 -8 6.0416331
3.999011 6.5028901 10
1.4762182 0.87296951 11.008425
3.6791999 -2.7690527 8
1.0540993 1.5765014 11.033102
-3.4382553 -3.7237067 8
1.6197169 0.63380504 18.919819
-1.6949691 -5 2.7378561
-8 -6.6801686 5.16676
8 7.4487553 7.2584119
-3.9448886 4.0192113 8
-2.4899321 -3.6418133 10
-2.7643843 4.2986064 8
-8 -3.6470215 2.7422829
-3.8775377 -5 6.8348579
2.2930467 -1.3779618 20
5.0858488 -8 5.373034
-3.2582431 0.90890753 8
-4.7998295 -1.1228194 8
-5.9744129 -8 0.96372247
5 3.9809575 0.44178468
5.9514999 8 5.8762002
-1.5215803 -2.9015715 8
1.7251964 -4.9718018 10
2.3185008 -3.3853915 10
-8 -7.275805 9.8097696
-3.7545738 5 2.2837753
-7.7413425 -8 1.6831281
5 -1.9735916 5.549552
5 2.4182267 2.7328086
-5 4.9621296 1.2499063
0.6408776 -0.6688717 15.995701
0.87318039 -1.7349936 8
-4.1722164 8 7.3073463
5 1.0278594 2.354017
-1.4471483 -8 3.4043221
-3.9613867 -8 8.8810301
0.55437195 2.40938 17.487507
-0.46539369 2.3752611 16.756153
-3.7865903 -2.0685384 8
-6.380455 -8 6.5697393
3.0466747 7.6277704 10
-2.3974905 1.2770547 11.854939
6.6302786 -8 6.303709
-5 1.1606426 7.6266379
-3.3868122 8 8.511034
-8 -0.35643876 8.2436008
-5 -1.4923328 2.8377533
5.7172279 -3.362463 0
