# .PCD v0.7 - Point Cloud Data file format
VERSION 0.7
FIELDS x y z
SIZE 4 4 4
TYPE F F F
COUNT 1 1 1
WIDTH 2011
HEIGHT 1
VIEWPOINT 0 0 0 1 0 0 0
POINTS 2011
DATA ascii
4.7202911 -2.6097212 19
-5.8261509 -5.6937981 18
2.6966302 -7 16.634985
-5 -1.2160599 3.5002861
8 -2.4619515 8.1663713
4.2164145 -7 15.25812
-8 -1.0408821 0.98042494
-8 -6.1669836 4.1377144
5.391407 8 2.8567128
6.6531849 -2.2158892 19
0.18891996 7 11.51107
6.3476787 2.0635629 19
1.8131032 -8 5.9062157
-3.4044681 3.517381 19.746271
3.3113556 -8 6.6267653
5 -1.5489438 9.0003748
0.017365456 7.8513389 0
7 1.266469 11.396265
-0.57108033 -5 14.218943
3.4301457 2.2485063 19.730818
8 7.690774 2.2620423
-4.3777599 5 2.8525419
-2.8141778 -5 0.39708072
-8 -3.01057 9.1568298
4.0598917 -8 7.2345486
-2.0411825 -7 19.359739
-8 5.2708082 8.1715183
0.37161922 -8 6.3494587
-5.8323393 -7 12.715298
5.3606305 7.7993689 10
4.4370599 -5 7.7197628
3.4114637 -1.1758311 19.740601
5 4.0887156 1.1319859
-7 6.0934839 12.274694
-0.84402281 2.6255469 19.661545
-2.4893744 -8 5.7542157
-1.2392439 -5 6.7368975
5.4628487 7 17.61627
-3.9492908 -5 1.0797591
8 -5.1186404 9.8603954
-3.6099622 7 18.969076
-5 0.59955812 3.0497539
-7.0000005 -4.3467522 13.7155
1.1645391 7 19.250109
4.1489816 -5.5799479 0
0.13970773 -0.91204405 18.937551
8 2.1451726 8.5093985
5 -1.840675 3.7648304
3.9973509 7 11.127592
4.1359506 -7 12.421168
8 4.4932699 7.4481211
-5 -2.2460082 14.21794
7.2396584 -8 8.1777678
-6.0638609 -7 13.848767
-7 2.6931894 13.335291
-3.6595047 -5 5.815433
2.1839187 -8 5.240685
-6.3026066 3.0934255 18
5.1381006 8 8.697197
-2.9503088 -7 18.55875
-5 -3.7056713 2.1789651
-7 1.6169903 17.04372
-2.2476749 8 3.207696
-5.7385502 3.1907251 0
-6.1739869 -4.0666432 0
7.7973523 -8 1.3353225
-3.3686471 -2.2018378 19.760208
5.4570456 -3.9803655 0
0.22522664 5 4.657639
-2.7138085 -8 1.1063589
7 -3.097363 17.451096
7 5.1026483 18.977556
0.21454385 -5 0.62999707
-5 2.1881568 10.246984
5 -0.80198824 10.770164
7 2.7710524 14.296488
-2.4484763 7 13.486948
-3.3396242 -7 11.266115
5 -4.6422591 11.549208
-3.6929283 8 7.5258241
-5.8242812 -8 1.3516841
0.80104303 -5 12.55689
3.0853398 -5 14.26734
-7.2545819 -1.117821 10
7 2.94139 10.656858
-1.1278853 -8 3.9662447
5 1.4546645 11.442192
-5 1.5031328 1.3715491
1.2010331 -7 16.487278
7 0.9130888 15.818721
-2.0872846 -8 9.5641537
2.7700877 2.1661708 17
-5 0.7023313 7.8471384
6.9543972 -7.6121759 10
0.95868957 5 15.867964
0.084308036 -1.7133262 18.967094
-7 5.1569405 12.294564
-1.2334931 7 13.712526
1.7179222 -8 8.651144
0.65722251 8 6.0621295
-0.78139544 5 9.2714596
7 0.95171976 13.375878
-6.0596495 7 10.328992
3.9417775 -5 14.123595
-5 -2.5370865 4.8336043
4.6018658 -8 7.2457108
7 2.0761366 15.722115
0.61158073 -5.9204993 0
3.9709985 -6.8032117 19.28768
0.082443237 8 6.4303589
5.7363582 -7 12.23146
7 2.833246 15.913546
7.3690324 -8 0.062710412
-8 4.6751857 8.4417038
7 1.3047197 14.611639
-3.317807 -5 5.929131
-5.1667886 -4.8914485 18
-3.4098392 -2.0227897 19.743254
4.2599525 8 7.9578171
1.2988663 5.9996133 0
-7 4.2779045 15.206182
3.973783 8 7.2850089
2.0753539 -8 0.28326628
-3.4197607 2.1715646 17
-4.8219242 3.903595 18.435818
5 -2.7480588 9.1687412
1.507776 7 14.973076
-3.3534396 -5 12.267523
5 0.29868793 4.8357034
-2.5336912 3.4020369 19.965656
-3.4720502 -7.4183898 0
-2.2553673 -5 8.2520838
-5 2.74352 6.7562685
-7 0.9712615 14.265398
4.7117829 8 5.2701044
-3.5307829 8 0.064936876
-5 4.4333372 5.0747786
-1.5827734 -1.4344697 19.93573
3.8202605 7.2060289 0
5 3.8698349 2.5704794
6.5094161 7 18.884735
-2.3909783 -4.6733027 19.980141
8 -2.8950226 7.4869967
-3.9186778 -3.2076273 17
2.9520512 5 3.1079133
0.59013534 8 5.8058515
0.076756619 1.8067459 18.973587
-0.88555789 1.5862921 19.685059
-1.3733035 6.6991673 19.868704
0.82772517 -7.3701658 10
-2.7246387 2.9250448 17
-6.5792685 -3.2947252 18
-3.0274112 -8 6.4611912
-1.1375208 -5 6.3777995
-7 -1.0067885 16.548679
-2.6820393 -5 6.1067781
5 1.0275912 5.7094789
8 -7.072093 5.7295761
7.6025796 -8 2.9752402
5 0.00051450729 1.8835438
0.64415884 8 5.2490578
-1.4921306 -5 10.802814
2.7869077 5 8.2650957
1.3899103 -7 18.456839
5 1.6763269 11.022026
5.7817898 8 6.845345
-4.2068882 5 3.0866721
-2.4013007 -6.7679729 0
-6.1334906 -7 14.097824
7 -1.5178947 13.534332
1.3043439 8 8.400301
-6.5719776 8 7.7288113
-7.9678917 -5.030375 0
3.1304376 -5 16.592091
-7 5.4698792 15.634368
-7 -1.0625067 14.469946
-8 -2.1655219 2.4606857
3.2508402 5 1.6014587
0.40012336 5 10.803598
4.2422504 -2.4266384 17
6.2726827 -7 12.592024
0.28565168 -3.5525391 17
5 2.1662049 7.2652192
5 -0.49548054 4.2259893
-5 -2.9255598 5.9234967
0.90974319 -5.4043465 19.254063
-5.8660717 -7 14.426514
-1.7155061 -5 11.33148
1.0885785 -8 9.7742052
2.3507502 5 16.495136
-7 -4.1823707 12.912872
7 -2.0034649 17.156567
7.4065547 8 7.5091295
-5 -0.78143907 1.8370403
-8 -7.0750961 6.4445367
6.8176003 -0.91829574 0
-4.8492346 7 16.019077
2.6295033 7 17.837681
-3.9762733 7 16.855618
-6.6388607 1.6791937 18
7.6223769 8 0.23486078
-6.9999995 2.0678506 16.239799
2.9730082 8 2.1794291
8 -0.71439648 0.89840245
-3.0584102 -5 8.4794264
5 2.1763752 12.4527
5.3807011 7.8747759 10
3.9835496 4.9999995 12.100511
-1.7962804 -5 0.0097436905
7 6.3543987 10.547487
-3.1802568 -8 3.0655336
7.5516038 -4.2917762 10
-6.1932445 7 11.243063
-4.6292129 -5.6900444 18.735302
0.69904518 -8 4.4363632
4.6690645 -5 4.6634655
4.3746781 -5 3.5083585
-1.3756607 -7 12.860579
-7 -2.9643545 11.67993
-6.7412243 0.33112991 0
8 6.3269615 5.2151623
8 7.635952 2.1152284
5 1.6926776 11.082927
-0.85295916 5 8.3613644
-8 2.2259598 6.5918322
-7 -4.1527963 11.356644
-5 -1.5485584 1.5743538
0.78269422 -5 15.881977
2.6012292 -5.3031473 0
3.6094751 5 3.0070584
8 1.2135754 3.3855195
6.4529843 -0.87531728 19
-7.9069648 -8 6.3545585
7.6968513 1.0266252 10
8 0.24706459 3.9582989
-4.162219 5.5186019 0
0.14915419 5 11.290382
-7.8202453 -8 3.5160873
-3.5265379 0.26165783 17
1.9513237 -8 0.98030514
-0.64865899 -5.6880956 19.550955
7 0.4181695 17.615131
-8 -2.1406465 1.3795516
3.6577854 0.31947649 17
8 -3.9770815 1.6374902
3.4529443 -8 3.0439315
-8 7.4908562 3.8644471
5 0.30821085 8.5948763
2.8169949 -5 12.148611
7 -1.6199802 17.218779
-1.7011087 -5.2970896 0
-0.8914237 -7 18.831644
-4.8861332 7.7712908 10
8 -7.6269073 2.0787249
5 4.9571743 15.373043
-6.6754031 -7 12.344666
3.1874084 5 5.0251899
5 3.1005521 15.387162
3.9288969 5 12.249195
-1.3722175 -6.4495311 0
4.599277 -0.15995455 19
-4.1121306 -7.5015597 10
-3.8240719 5 14.408957
4.1805239 -8 1.0017055
-3.5490699 -8 9.146759
0.67339921 8 9.0006733
-4.6649113 -5 12.646741
5.0539823 5.8595023 0
5.275878 8 1.7979008
8 7.4589996 1.8307108
-4.2431154 5 8.9851303
6.2818899 7 10.039572
-0.86155599 5.6101398 19.671473
-6.892519 6.3589611 18
-5.0000005 -3.4738801 16.266111
8 0.12629318 5.0239983
7.1615605 -8 9.0458546
-4.5683098 1.1086361 17
-2.4626689 -5 6.900898
0.86235797 5 13.890058
-8 -4.0433545 6.8547688
4.7111626 7 13.221018
4.3415341 7 10.751707
8 -6.9821362 2.003463
6.7923326 1.6959352 0
3.1744409 -8 5.1357789
-8 -4.0296335 8.682435
-0.879287 -8 8.4399433
-8 6.3276625 4.9481621
-5 2.6573715 9.1419916
0.1792202 -8 0.18741006
7 4.1602812 18.48637
-0.012106895 5 1.9500515
-1.2515444 0.99775976 17
-8 5.2051797 9.45051
-7.1892552 7.4716706 10
-7 -4.7390232 17.623169
1.2328858 5 6.3785062
-3.5185816 7.5670514 0
-2.1495862 -8 8.6414232
-5 3.4809844 1.4006565
-7 -2.6881146 11.9034
-1.2382464 7 15.993247
-1.7395741 5.4859834 0
5 -3.9210711 5.9312515
-1.1699474 -5 8.0284748
-6.3578196 8 3.7214251
-1.7812371 7 19.744993
-5.5185237 7 15.005391
4.5905728 5 2.0066013
7 4.0056982 11.336296
-0.035202742 5.6622868 0
0.092042327 5 14.074486
-1.7698317 -5 0.37044263
-8 2.9289179 8.6297264
3.4549427 -7 19.608894
-4.0300827 -5 3.7790279
1.0291611 -2.6745906 19.396564
-3.0671253 -7 16.569052
1.6925992 -1.0521216 17
8 -7.5776224 0.869313
-7 -1.5463188 17.335539
-8 6.3905802 8.9191866
-5 3.8499918 3.4662552
-1.1491235 6.4948421 0
-8 -7.9735646 2.6957932
-5.2554274 -7.6696558 10
-8 4.1559935 5.7806268
0.92306471 7 16.698904
-6.552403 -4.634006 18
8 1.9846401 3.9127121
8 3.9263225 7.882205
-7 3.3114753 11.821982
7 -2.9236026 15.02957
8 6.4227657 0.86718637
-5.462563 6.1356692 18
4.5628858 -5.3224874 19
0.095382035 7 17.315088
-7.1643534 -0.10805035 0
-7 2.2840643 14.43721
6.1164575 7.4432559 0
-6.3993306 -2.8319745 18
-4.2522969 -5 3.3298626
7 -2.5935614 11.255808
3.367414 5 10.846169
3.1403069 0.86141562 19.873854
-1.5152652 -8 4.7927389
3.689328 2.0768876 17
-7 3.0544252 12.201609
6.1314783 8 2.8234391
-3.1204281 5 15.087594
-5.378262 4.6064887 18
-3.6061161 1.4659722 19.63295
-3.9881659 5 3.766819
-5.9732618 3.9061496 0
-2.9286721 7 19.172464
-5 0.85448354 12.846517
5 -1.1927415 14.052024
-2.3070211 2.8197708 17
-1.1755571 -5 16.590076
1.1932461 5 8.6276388
5 -3.2266474 6.8925362
5 -3.2335987 3.7392855
7 5.8265934 15.037561
6.8765006 8 7.2846117
8 2.1200762 8.8153305
0.63643813 5 3.4807885
3.9499555 7.0000005 10.128833
4.6828575 0.3110458 17
7 4.0848589 16.151424
1.7494882 -7 15.406091
-7.3545351 5.3742571 10
-5 4.0382543 14.54668
-2.7844918 -7 15.8738
2.9547853 0.99235463 17
7.2459774 -7.4388161 0
7.984827 -8 8.9076109
-5 0.49832797 16.733437
-0.025326967 5 9.3895206
7.576704 -1.2106466 0
2.1754665 7.9942694 10
-1.3585844 7.5860558 0
-7.0000005 -3.3305805 15.32416
-4.9935122 -0.054986954 18.073736
5.1201792 -8 3.1258457
8 3.2883921 2.4089816
2.6573572 -8 7.7145929
-3.8899302 -8 4.7254868
4.8825502 -8 0.61037523
-8 3.1977434 2.9914618
-7 3.0571835 14.3682
-7 4.3491669 10.642264
-0.97220421 5 2.3313675
-0.082350731 -8 5.0313396
3.5284858 5 9.6553431
-4.7871399 8 8.0567703
-7 5.2490463 15.536183
-0.43764019 -5 10.175972
-7.5897665 -7.6419487 10
-6.8839417 -6.1759315 18
-0.76563132 -7 13.189848
-8 4.2930212 1.0396845
2.7230291 2.0305052 19.979902
3.0800397 -5 16.7145
5 4.3965588 12.106098
-2.0382786 -4.6471376 17
5 2.9619617 4.786571
3.1399903 -8 2.590368
-1.8481451 -5 5.5211978
8 1.5543318 3.2047529
8 5.9154835 0.75560915
3.2284527 5 15.092573
-4.9312367 -7.2622113 10
-1.6474791 5 9.2667007
5 -0.87222075 6.5755405
-1.6242795 4.4011946 17
-2.4531975 5 16.149136
-6.7961912 7 10.815253
-8 2.1989341 4.5632253
-7 5.6850138 10.683518
-5.13169 -8 5.4363213
5.4176407 8 6.4792962
-3.8237982 -7 14.475444
-0.41994089 7 18.040752
-2.1193171 -5 13.984716
5 3.3405156 14.792463
6.3730021 2.3696053 19
2.3109136 -5 16.254349
1.3796444 5 2.8905542
8 -1.1389644 5.9363365
-3.093534 5.828392 0
1.0989778 6.9346018 19.468639
1.9878621 -7 14.410039
-5 -2.0276766 0.81697237
-4.5183115 8 2.587683
-8 6.1211433 4.998477
0.48251438 -1.7876289 17
4.6483707 5 1.1677585
-0.787314 -5 11.53677
-7.1773539 4.9121919 0
5 1.7038198 9.7878151
-7 -5.8382688 14.371592
-4.3806887 7 18.363787
2.3717334 -5 10.785805
1.4243736 4.0101089 19.714657
3.0166712 -0.28170753 17
-2.9080868 5 3.8715355
-2.9574938 8 8.0601006
5 -0.84782219 3.3393705
5.7439828 -7 15.735648
4.4157648 -5 11.336633
0.40618142 5 14.319149
-0.54404473 -2.0892084 17
-3.1601162 7 10.537409
5.8241248 5.7436066 19
1.0463266 -6.9648371 19.417046
8 0.010759592 7.0360122
6.5604706 -8 8.3612385
-2.6933384 5 9.553236
8 7.7505598 6.6516609
-8 5.7329659 6.8701038
1.6359792 8 2.6136608
-0.39736652 -5 13.726561
-8 -6.0418801 1.9747512
-4.7980127 5 9.189373
3.7937219 8 0.45309246
0.36862063 8 4.7626495
-0.90916204 5 2.3271301
-4.2824335 -1.746666 19.143488
0.95816767 7.3222542 10
4.8892517 5.0000005 11.749323
-1.4785984 -5 3.3447983
-1.575036 8 4.6012087
2.538245 2.0494368 19.985533
-7 -6.3652253 13.382051
-8 -1.7877202 0.05117894
1.0968754 7.3743277 0
2.13235 8 4.1952934
-3.9179347 1.3240435 17
8 1.9327078 1.4397496
-3.6375995 -5 9.0247774
1.0656121 -5 1.0181589
3.3073473 8 9.15804
8 -5.4557209 0.20790659
7 -3.2559962 14.527363
-7 0.86467695 11.659132
-7 -3.3998921 15.423012
3.4083624 5 4.421464
3.4731562 7 19.315359
0.10284853 -6.6197438 0
6.937552 7 18.74992
-5.0939236 8 4.4974928
-7 -1.5105112 14.446575
5.7988772 3.7156301 0
1.2942986 -7 17.202591
5 -0.0078594685 3.268883
3.863575 7 14.798584
5 3.1805811 6.1644063
8 -4.3403959 8.3847389
-2.2194042 8 9.6000605
7 6.2485609 18.00489
-1.1063803 -2.7374344 19.783295
-4.8465824 8 6.0510988
-5 2.4577823 0.78696615
-8 -4.2677236 5.5244484
5.5811553 -8 0.73970097
1.4488726 -5 10.701052
6.663414 8 4.7328181
5 3.0017347 9.373867
8 6.6771231 6.5941424
-3.9609594 -5.9513435 0
2.1174357 8 8.9230576
-0.75812769 5 6.3456097
8 7.5257082 2.5356176
-8 1.021148 9.9526701
7 -4.8356318 18.137018
-7.8755326 -5.7296185 10
-5 -0.94737071 7.531878
5 -4.5012212 13.797182
-6.2844381 -8 0.95975578
0.16310573 5 6.8302302
7 2.1821012 11.79752
-7.6910124 0.53670883 10
-4.298614 7 15.730501
5 2.7290797 5.6732178
8 -3.8566568 1.6339593
3.28655 -4.567977 19.806004
3.5078256 -8 6.3504748
-5.0999489 7 11.844931
-7 4.2617154 10.389728
7 -5.1693573 13.522472
-5 1.0088193 10.386633
2.1574893 -2.1456966 19.967596
-5 0.24980915 3.6976576
7.9941502 -1.6693945 10
4.9999995 3.2797465 13.267826
8 -4.6470838 4.2049875
5 3.3870811 12.771154
-8 -2.6909132 4.5324154
-8 0.42282248 4.0328498
1.072359 -0.2093997 19.448111
-7.7984657 -8 9.3327322
5 4.0069532 13.6776
-5 3.2507257 6.4164076
1.7360719 4.3767662 17
-3.8197911 1.0437601 17
-8 0.36904991 3.0858493
0.737396 7.8288951 0
-3.48843 -7 15.404543
1.3725462 -8 6.3026981
-5 0.91744626 7.0016899
-5 -0.65176845 5.3277922
-7 -0.75277066 10.042994
0.51186508 -5 1.9912584
-4.5855441 -7 10.635593
-6.6858139 7 12.492873
5.088316 -7.4851665 0
-5 -4.8991551 16.021803
5 1.2497644 4.8809867
-8 2.702497 7.1324434
-4.6244125 -8 2.9454961
7 4.4714279 15.568918
-5 4.7986088 8.6278458
-5 2.4918144 0.69057798
-2.1072929 2.2598007 17
-2.3010252 5.5131607 19.989273
-8 -4.7007351 2.2512035
-2.6760869 5 14.175664
-8 0.72024655 2.0550585
-7 2.6880562 13.461235
5.0352936 7 18.353313
5 -4.3903098 1.7931612
-3.4313886 7 11.96247
-5.8901482 7 17.09425
1.7885568 8 6.3439941
3.5740736 -5 16.595932
-6.4226646 -3.2782917 18
-4.7055588 5 6.5481005
5 4.733078 15.894645
-8 -2.1762528 7.0233397
-0.52066058 6.8384438 19.478498
5 -3.9520323 14.669082
8 -1.9744436 8.5963068
-4.7328305 8 1.3452822
6.9565606 -6.0321965 19
2.4181952 4.1950541 17
3.6060925 5 12.903765
5 1.2615538 9.3074799
8 -7.5815544 6.6763139
6.3307223 -7.0000005 13.777279
-5.0033274 -4.076272 18.053024
-8 -2.3036137 2.6029098
-5.0667634 -8 4.1206584
3.22018 5 9.9482479
5 -3.615871 8.6023226
0.4659338 5 8.1158686
1.8944715 -5.2438006 19.915516
-6.8304839 -8 8.9089336
-3.1970911 -6.9543839 0
8 3.4589176 1.594488
-4.5904665 1.9695063 18.786486
7 2.0551431 10.48868
5 2.4004679 9.3884554
-2.747041 6.8610916 0
-5 4.368351 9.7322474
4.8605008 5 2.9582398
-4.877655 5 14.490405
8 -3.1808367 9.7759247
-0.09097147 -6.3173232 0
8 5.2615051 4.7848196
-5.1340466 7 12.113621
5 -4.4566231 2.2746482
-0.97630119 4.5086012 19.736425
-6.4487629 -8 1.5130855
5 2.7915611 6.06638
-7 -1.5376298 12.332787
-2.6413648 -5 8.1295881
5 0.0792799 13.229486
5 4.2568665 15.546733
5 -2.2506735 6.6859865
8 -4.320889 4.0829935
8 -4.7625523 5.2280245
5 -4.765872 9.8010883
4.570816 -5 6.2403345
3.4818788 -8 1.3871434
-5 -3.8273358 4.2697573
3.8587441 8 3.6508579
5 -0.6049881 7.3724327
-4.4679661 -7 17.761507
1.2418222 -7 17.244396
5.2205276 -8 0.74472094
6.707737 -7 15.775567
-2.9255788 -5 10.029192
-3.9109142 -5 16.217159
5 -3.7522135 16.548326
7 2.1929135 18.18129
-5 -1.1919441 2.3508945
1.8858873 -1.3821431 17
-8 -1.0642298 3.6001296
-1.9136069 0.067175388 19.970512
-4.8725467 -5.7630272 18.328995
-5 1.2616682 2.519819
5 -0.39610136 10.732406
-3.0347416 -7.6055441 0
-7.0890055 8 5.8038697
8 -6.9412851 4.8555794
-7.3487272 8 8.623538
-6.0507097 7 12.930628
2.7569561 3.1908531 17
8 -1.6893721 5.0597744
7 4.6155634 15.930287
-5 2.4253044 7.8868861
7.9820805 4.5099936 10
-3.4028854 0.70474648 19.747162
-3.6453719 7 17.804802
-8 -4.2265482 9.1781807
5.0757322 7.7664156 10
-8 -2.8007336 0.65339291
8 -7.9614401 2.8381627
-7 6.0819159 12.074463
0.63570786 -2.0753367 17
5 2.3357368 16.22921
5.7721725 -5.0164013 0
-7.5979691 8 1.414835
-6.0055304 -3.5316892 0
2.7400403 8 3.0096107
7 4.280962 13.806211
-5 -2.5674458 3.1220188
4.2966146 -5 16.166965
1.5660573 -5 10.216711
-6.4665327 7 16.717108
-3.2905216 1.1677583 17
5 2.7580256 3.1946096
-7 5.6380548 12.885898
-2.9460323 -5 12.891373
6.4127741 -3.6911941 0
5 -2.6915669 13.62216
6.4685001 -6.1122627 0
8 6.9106259 9.6994553
0.06708166 1.7313932 18.981903
4.8013597 -7 12.613974
6.6025529 8 7.5677085
-2.8724675 4.9608393 19.917276
-5 -0.48821843 14.784147
8 -7.031064 9.8796968
3.5390193 7 14.016215
-7.8212667 4.0824313 10
7 1.3493643 15.033247
-4.723381 -7 16.888659
8 -1.7383621 5.719902
-1.5101515 -4.637722 19.912491
4.7320509 0.43001461 19
-3.6933975 7.4785795 0
-5.2951016 -3.1464581 0
-8 6.4825797 3.121304
4.4503503 5 13.898989
-5.4611325 5.6005707 18
-5 2.495049 8.6755161
-7 4.0591679 16.690193
-5.9627872 -7 11.065966
-3.9128981 5.4555035 19.460543
7 -3.959789 13.03241
6.3897781 -8 1.4179431
2.2303553 7 13.988356
-1.8009803 7.3272071 0
-8 -7.578722 4.2375345
-7.3843303 -8 3.0110979
3.1568189 -5.7712846 0
5 -0.03155756 2.2298672
2.6520889 1.0903785 19.982063
-2.3800192 5 5.4840775
5.0000005 -4.7319608 1.3494161
-8 4.9301519 1.2602988
7 0.71420217 16.876297
4.2493095 -5 0.87850678
4.821281 -8 7.7408733
-5.2268195 -8 2.4581482
-8 7.9538169 5.5152049
-5.4910707 -8 2.0677476
-3.9200304 5 16.875513
-7 -1.426765 14.000518
-1.2176595 -8 7.7006345
7 -0.90111202 15.799759
4.5372095 5 4.6298599
-7 -6.1602368 16.450094
-5 -3.916502 1.6032717
-4.7586021 5 15.330029
2.0020461 -8 6.0315657
6.1611371 -8 1.5482603
8 7.388238 3.9572544
-3.2022762 8 4.5258403
-3.5149179 -5 3.6326556
-5.3890619 -8 2.8992817
-0.24637622 -5 0.46294689
3.1334758 5 12.124444
-6.3900771 -6.6449189 18
6.8360882 -6.5479136 19
4.8649349 -4.9095154 17
6.9583235 -7 12.094225
-1.1381536 5 0.11909284
-4.3726282 8 5.9695101
7 0.1716795 10.447558
-6.1595035 -1.1357759 0
-3.2345099 -5 13.560424
-1.5221136 8 0.64360797
7 2.0430803 16.869156
-7 4.6996813 13.863244
-7 -0.098638773 12.718678
-7 -4.5731468 10.759678
-5 -4.786109 1.4480507
-5 -3.11239 15.040092
-2.2544513 -8 0.84727609
4.3508139 8 1.2149686
-6.0706854 -7 15.391274
-5.3188877 7 12.872128
-7.7692299 -8 3.2139757
-0.74231827 4.2061872 19.603973
6.5495462 7 16.291611
2.0980358 -8 5.1142921
5 1.3328732 7.5843687
5 -3.744565 1.3062301
4.961072 -7 12.945524
0.24567366 -7.4846416 0
4.1784272 7 11.603951
0.86900806 5 1.4867299
0.53027153 -4.4004774 17
2.4741387 -3.9021552 19.987486
-5 2.9282885 3.2045331
2.6734967 -0.75802445 19.981413
8 1.9902339 9.4621372
-4.7112145 -5 9.2747278
-8 -7.4459867 7.5756807
0.94286656 1.8623934 17
-5 -4.9012504 7.3312416
5 -4.2836723 6.4871922
-5 3.1571915 10.814171
7 -4.456893 18.18144
3.1836672 0.52489156 17
5 2.8241816 12.48874
6.4179559 1.2770447 0
-1.2438624 8 2.0585651
1.1874678 -8 8.2196751
6.3938704 8 2.0306726
0.429537 7 14.176281
-6.9999995 -3.3757834 16.744183
-0.91715759 -5 13.443443
2.7530959 8 9.3871031
-2.0924029 -2.4441433 19.98922
-6.7422476 8 1.6614563
-1.9567235 -5.0688357 0
5 -1.2013408 9.2341509
1.2324033 7 13.161896
-2.6186485 5 12.821376
2.831059 -5.7679219 19.954931
-0.33369005 -7 14.490658
-8 7.994473 5.7890353
5 2.3820696 11.207438
-7 -5.0672216 14.084644
-8 -7.2205391 7.8828678
4.4279037 -8 9.3975458
-5.0562258 8 5.6629758
-6.1726036 -1.8096895 18
1.90896 6.6170106 0
7.8859215 -1.0421872 0
-5 0.3057524 7.3267241
3.2857442 -2.9029455 19.806427
3.167171 -3.2403641 19.866812
-8 -1.9578925 7.9295816
2.8666768 -5.786984 0
8 6.3356009 8.7874212
-0.057893649 7 18.943375
-3.310771 -2.8419156 17
1.5054263 5 7.3293643
8 3.0086184 5.0635376
4.8640575 5 3.8699327
-8 -1.824537 9.9406662
-7 6.4568996 14.459784
-5 -3.9549642 0.28620166
2.2879779 -8 1.1432229
1.4164121 8 2.6550734
5.3146071 7.9014935 10
-4.9477596 5 8.8855314
-5 1.0253396 11.734021
7 -1.7835405 10.448874
7.9191885 8 9.7279825
-7.518961 6.979104 0
-5 -4.2521515 5.2671423
7.5532265 -8 4.0582671
5.6295843 8 4.8293443
4.0942612 0.7072525 19.120934
-4.0794096 7 19.191607
-8 0.62416124 6.3723683
-7 -4.4531069 17.013054
-0.96777344 8 3.1395042
8 4.8416395 6.5630059
-4.6417732 7 10.56246
1.8883836 -5 10.282291
5 -0.20895427 12.95541
-2.7693017 5 14.740294
0.70689845 -8 8.248127
-4.7617531 1.1269659 17
0.26833582 5 5.2436013
0.37068272 -5 2.2449844
8 5.2374625 8.5614719
-0.01072526 7.7436953 10
0.52076733 1.7094449 17
-0.91431189 5 11.525761
0.71105337 5.8049378 0
-4.9669909 -2.8917389 18.1297
0.33046627 5 0.91096586
-1.652226 -8 4.1950192
3.5713832 -8 7.1829648
7 4.2894335 10.228458
-4.9421892 5 0.4276593
-2.1257586 -5 10.556659
7.6647615 2.8727696 10
0.97279835 7 19.288591
1.4780462 -7 11.156404
2.3175011 5 5.6681781
-8 -7.6563549 9.511611
2.3751941 -6.4546838 19.990503
-1.6190957 -2.2572646 17
2.6908703 5.3543148 0
8 1.3762226 4.8492055
-7.9280396 7.9378824 0
2.4409881 7 15.403229
-7 4.5454426 17.78528
-8 4.6109276 0.69187176
5 4.6485472 10.540521
-7 6.914711 15.91604
-7 -2.9419241 15.396037
5 -1.0067601 16.362663
0.78974485 -1.0175612 19.110868
5 -2.888397 12.105335
-5 -2.3639123 6.3923926
-5 1.9396404 7.5313501
3.0184956 -5 1.3202934
3.0462613 -5 4.4748025
0.49354708 -2.3631384 18.898151
8 -1.8719976 0.49174356
-5 -2.9364915 2.6712101
-2.188988 2.625782 19.999327
6.9529819 1.5274173 0
-6.6126122 -5.192287 0
-7 5.7656679 14.493553
-0.12664223 5 11.019289
5.9322824 -4.1503325 0
1.1316636 -7 17.980583
-4.9999995 -3.9878368 3.8934648
5 -4.2887831 4.6018085
-5.0227652 4.2691679 18.012007
0.48747259 1.3891164 18.896954
2.3397434 5.6253347 19.991583
-4.5148525 -8 2.3768392
-2.7218351 5 1.1157306
8 2.5288811 2.2055404
2.1371818 -8 4.8230767
5 -1.2812223 4.821928
-5.3746452 -5.3569865 0
8 -7.1669211 3.2137563
-5 -0.28188324 13.868209
-5 0.29734135 6.4483643
-8 -7.4928646 5.700335
-5.8251162 2.3961723 18
0.18496037 -3.4878826 17
-5.7243309 3.5504036 18
-5.5666671 -4.4453077 0
1.2407539 -5 6.3902597
6.4219437 1.5215018 19
-5.6265569 6.9283981 18
2.8147674 -2.8913193 17
4.4777074 -5 10.194909
1.7548043 -0.073761702 19.865427
-1.0702455 -4.5708861 17
-2.8331678 -8 3.8427315
2.6355207 5 1.0951226
-1.6378793 2.8911986 17
-4.871398 5 3.7764802
-4.417263 5 9.5001659
-5 -0.38956922 1.8210447
-3.460237 -6.912406 19.714931
-5 -3.5325565 7.7202892
5 1.5029359 6.0069427
1.6512986 8 3.5064716
-8 0.85887718 7.2974911
-1.4896746 8 8.9005852
0.92709696 -6.1083717 19.274771
8 -7.4807591 6.6529531
-7.6123581 -8 9.7838554
-2.7405047 7 12.322363
6.0382624 -1.9169956 19
4.8053656 -3.8104448 19
-0.2561447 -8 8.8633118
-5 3.7813582 0.3468008
5.4980011 8 9.0744667
-3.8020911 1.2085985 17
5 -4.6758003 7.6209831
-4.1240249 3.2731524 19.281702
1.7418394 3.6739507 17
0.12675391 5.3257623 18.944359
5 -2.0782557 4.253952
-6.8055592 7.9479623 0
8 -1.9652746 3.7001863
5 3.0549355 14.5573
-5 4.3338566 16.426327
-8 -4.7580757 9.4664764
-3.194967 5 8.1498041
-1.7371309 2.9975848 19.952045
0.90250719 -8 2.9038033
2.7448764 -7.5252357 0
-4.3460679 0.9935236 17
-6.5105972 -8 7.028635
8 6.327795 0.08790867
-3.2399569 6.3262482 0
0.8243351 8 8.5578232
3.4340324 8 5.033287
5.058949 -7 11.52933
-4.643177 5 3.1623263
5 -4.5792375 2.0684369
-6.8354044 -7 14.11095
0.77330089 -7.0258579 10
-8 3.8779593 3.1328738
-1.2829703 -3.1218324 19.8398
-3.8599455 6.3060942 19.490301
-5 -4.5946321 11.72233
8 0.88202572 2.010534
-1.6808596 -2.1222444 19.946157
-0.42506409 -8 7.2194028
3.4960885 0.52206802 19.696289
-1.5794967 6.4807897 0
-5.7914071 -8 8.9817038
5.5155735 8 0.98575115
5 3.2824094 2.8670859
-0.44637918 -8 2.2656538
-0.57805777 -4.2168422 17
6.5168219 -8 6.1460953
7 0.23037004 18.103008
-2.351712 2.9495659 19.984127
-2.58463 8 7.6721463
-5 -0.85001236 2.6150186
-6.5935974 8 1.9312238
-8 -7.2475371 0.50681573
-5.5948906 8 6.7194896
-8 -3.6314368 1.6297307
1.6634938 -5 7.6929345
-7 6.105278 11.417788
-0.68730628 -5 7.1117845
-1.5520483 7 14.767913
-1.075431 2.2367649 19.773394
-0.45479843 7 17.799707
0.33503771 5 1.9889699
2.1150708 0.22916222 19.959198
-1.1915083 2.7790926 19.810535
3.463841 7 19.124357
-0.47743273 -5 8.9737749
-8 4.8362522 8.7358379
5.5634847 2.227772 19
0.6720351 8 0.28411627
1.1389276 5.6229572 19.498846
6.8988867 -7.5294509 10
-8 -7.1208334 3.9468858
1.8874406 5 3.1438296
-7 5.2976089 10.835257
-8 -3.7194448 6.6996579
8 -2.5758803 2.1094179
8 -5.5361595 7.5441246
5.156045 2.7891996 0
-1.7606201 7 14.305977
-0.40163016 -3.0538242 17
-5.8194208 0.60207701 18
-1.5035905 5 10.364126
-0.91187763 4.22439 17
4.0664148 -7 18.048597
-2.6752815 -6.5798202 0
-3.8131123 -5 10.508862
-4.5147643 6.2125964 0
-4.4094667 -5 2.1998692
6.7053552 7 15.180257
-0.56328845 -7.0735826 0
1.8044512 5 7.0755248
5 4.9741974 13.72184
-4.7758989 5 9.5176554
0.66052413 -5.1779413 18.978863
7.142252 -8 7.0982409
-1.1384248 -5 8.6265078
8 0.21316671 7.8900909
4.728209 8 5.6178832
-4.6574011 -8 8.2417126
8 7.4323387 0.19028911
5 3.7069635 11.945714
3.1558459 7 12.648106
4.2273874 -5 9.1596155
-3.7558937 -8 4.9660373
8 -7.5533886 4.5461574
7 6.8943081 12.601931
-5 -0.30994093 15.201344
8 -7.9077163 2.8142343
-3.069155 5 4.290565
-7 1.5379001 13.021807
-5 -0.25619841 2.6886141
5 -1.0217627 7.7881918
0.78000724 -4.1902156 19.099247
7.0604758 -8 0.8629629
-7 -0.75725186 11.295485
-5 1.379105 12.752295
-5.780756 2.1035576 18
5 3.7533875 6.3447156
5 2.5910802 10.004574
-4.3497767 -7 13.239727
-8 4.2435942 8.4205961
1.76411 -7 15.415619
2.381422 7.9595423 0
7 3.2482653 10.273207
3.6860583 5 5.4355049
-5 -1.7831728 2.6021044
7.3691826 -2.5919273 0
8 -4.3471661 6.4010696
4.9612961 -3.2720475 19
-7.9317193 -3.1742425 10
8 1.3800306 8.5910835
5.4271536 -5.9196787 0
4.4507213 -7 14.173288
-2.2611544 -7 17.028622
7 2.8791428 12.273291
4.7956147 5 4.6174626
-8 -1.214839 6.0675611
3.0563066 -5 2.6605635
-8 -6.4635739 7.927474
-8 2.5921073 5.3959045
-3.4161994 -8 3.3452418
5.8791175 -6.3006468 19
-5.6849623 8 4.0245562
4.2257299 -2.1273298 19
2.5899644 8 2.5690598
-7 1.7897971 15.343969
-5 0.91769433 15.844255
8 -2.9838648 1.9075108
8 -6.5348024 7.0500112
5.3090391 7 15.369913
6.9971037 -8 4.6428003
-7.3100433 3.8947625 0
8 2.1208906 1.3468163
-5 -3.1000564 10.561096
-5 4.1935635 4.9485393
-8 5.7096701 0.55786294
-7 1.0897239 11.836246
7 4.1832609 17.35717
-8 0.70783758 5.6489711
8 6.2778692 1.1458679
8 7.0806894 3.827626
7 -2.069031 11.910615
-5.6919761 2.3149765 18
-5.3007689 -8 2.5042675
7 2.2822373 17.768227
8 3.3903337 8.9218197
-5 -2.4892385 13.064958
8 -1.5726898 5.7060485
7.8281159 -5.7494731 10
-6.4241929 -8 2.4546485
-6.1739388 -3.0523305 0
-1.5232241 -5 1.7976339
3.0922327 -5.6080036 0
2.7465367 -5.3194575 0
-5 3.685514 7.8254833
-0.83345973 -7 14.047245
-4.2302527 6.9900522 0
-2.7403092 5 8.5274305
4.6547189 7.7162561 0
5.4736857 -8 7.7502985
3.1610224 -5 14.334175
3.240705 8 1.2369221
5 -4.9254889 2.548975
0.32613683 5 8.994112
0.51028681 -3.7382131 18.901449
0.74356163 -5 15.299279
-7.9485469 -3.8948808 10
-0.99104404 5 3.3809805
7.5355024 -4.3725939 10
0.31078666 -5.7474151 0
7 2.0401812 12.368135
1.3345454 3.6525514 17
8 1.791523 1.2109994
8 -4.4735241 7.5910959
-6.7714615 -4.0747213 0
0.85863066 -7 18.334547
5.8096657 8 8.8710222
8 6.4855862 4.8366313
3.1068335 3.2451911 17
-5.8155656 -7 13.913288
0.49942583 -5 3.1319125
-3.6910305 -8 0.67014384
1.0551518 -5.847918 0
7 -3.0984073 16.524639
2.9566159 3.3828421 19.922012
0.70725977 6.3764415 0
-4.6006904 -3.4759533 18.77298
3.638319 -8 4.2920828
-5 0.67868602 5.5044556
5 0.46608537 15.608829
3.1189246 -5 7.9365306
-8 6.7200122 6.9773436
3.2596726 6.020278 19.820078
-1.0917406 8 5.1721382
5 0.085645199 2.5902946
-1.4781338 -7 12.156124
1.4696163 0.94344902 19.737585
1.5045286 7 12.594378
-6.3586097 -3.2919416 18
5.9693599 -0.2247023 0
3.6493614 5 12.944279
-5.3079681 -8 7.7269053
-8 3.8891535 4.7130241
-0.060844667 4.7935729 19.092999
-8 -0.55997062 1.5864813
-2.169107 -5 13.247353
-1.3915305 -7 17.944838
0.85239124 -7.4663057 0
-5 4.0140514 8.5098572
2.2099371 -7 16.379257
5.3397694 -8 4.4791493
3.0285954 -7.7195945 0
-8 -3.4110703 7.2047877
0.24258709 -5 6.4880342
-2.6924832 -5 6.3021483
-2.7084312 -4.6199203 19.94792
-5 -2.6153016 9.1230297
-0.88101196 5 14.618209
-7 1.2013466 13.625904
8 -1.7327263 5.1930785
-8 5.4574065 7.5550303
8 -3.2370472 0.96985167
3.2526436 8 6.4881763
-7 -4.145143 15.547426
5 1.761734 4.3307672
8 -1.1799428 8.4495621
-0.10742039 6.8817692 19.13389
-6.5234137 8 9.6845818
-4.2009859 1.4169197 19.214552
-3.3758063 4.9999995 13.249249
3.8012657 5.2422466 0
5.0535388 -8 0.010608113
7 -0.67978835 10.477815
5.2033253 -2.9017377 0
-4.3250227 7 14.797586
-3.8536685 -8 9.1879063
-0.9067409 5 14.321818
-0.036589265 -8 4.5431566
-8 4.7214494 8.9686155
8 -0.54972959 6.7382383
7 6.2711515 12.735481
8 7.9713106 3.5430288
8 2.3697205 3.6212406
7 4.6171131 12.465376
8 -2.3587632 9.2325439
5 0.50749063 3.1326165
6.9999995 -4.9281478 16.781628
2.7126434 7.5165443 10
4.5020008 -5 8.8977575
-7 1.011274 11.766361
6.5846281 7.7759647 10
-6.239223 7 16.116299
4.693892 5 14.206661
2.5568886 -7 10.904388
5 2.0629845 1.0865743
-7 -0.13343859 17.164909
-5.3885736 8 4.7152014
-5 1.3085505 1.2257605
-2.5933208 3.3528728 19.959602
-3.3017261 3.2453425 17
2.047173 -5 13.029479
8 5.9554205 8.1595726
3.9914262 3.8151999 19.260044
-2.720408 -2.678021 17
2.7152839 -5 6.4949293
-5 2.4917884 8.2893744
-1.8853564 5 9.238863
7.717226 8 7.5347514
5 0.98963243 16.462034
-2.4994574 -5 0.78969592
7.7834439 8 2.2387266
5 4.5690327 3.6081698
0.74731857 -5 1.3679438
8 6.4181805 3.3027952
7.0581813 -8 6.5088286
8 -6.2093487 7.8797255
-2.8565412 5 16.29668
-8 -3.513905 3.1849337
-5.2595854 -8 9.4131708
5 2.4161139 3.4380493
-3.5006328 7 19.015722
2.494709 7 12.908192
6.0323834 -1.0267119 0
-4.3722014 -5 6.0060043
-8 1.3607206 2.8440394
-0.8811909 -8 9.1099148
7 -2.0248182 14.77022
4.8311491 6.2103376 0
-6.5910454 7.6084995 10
-4.7467856 -2.6782231 17
2.6187184 -5 15.182411
-8 -2.8577747 1.1289035
4.039454 7.2520599 0
2.9844577 -7 16.760914
4.6766777 6.9321451 0
-4.98558 -5 2.6774001
3.5794098 8 5.9338722
-5 -2.1950247 10.48665
7.2281022 3.9912121 10
-7 2.8090131 10.430935
-7 0.27522564 17.801851
-0.77052879 8 8.2137575
3.2308912 -7 16.788807
-5 -3.4570308 3.1156125
8 -0.62506771 3.4970031
3.9758945 7 14.447685
3.826226 7 18.071325
-5.2761459 7.9381104 10
-5 1.9665029 1.3697009
-1.8017725 -4.8442836 19.958809
-4.7490063 5 8.1308794
1.5913413 5 7.1550655
-6.9999995 3.3494678 15.716481
-3.4848177 -8 4.2057257
2.9348717 5.9595184 0
-8 -0.95460069 4.2248449
0.036757443 7 12.984851
1.8681667 -8 7.7252083
1.3012507 8 6.0099592
-2.0541024 -5.5103359 19.985214
0.73531604 -8 9.2733393
-5 -0.027194858 11.086546
7 -0.10322499 10.59807
-0.97780609 5 6.9939265
7.8398151 -4.5485201 10
-1.212925 -5 13.718259
-2.8435898 -8 4.0481915
-5 -0.62583506 15.148996
-1.9510384 5 12.10763
-2.4382343 -6.7451906 19.975346
8 2.1042304 9.2134018
5 -1.3671864 2.4487929
8 2.2167568 8.8391113
5.1223865 7 14.493181
5 1.1641246 12.558581
-5 2.5393169 8.6744089
8 -1.614025 7.9570055
-7 6.4051795 10.32021
8 -1.2004315 5.1520638
8 5.4556389 7.1755896
8 -6.7511873 8.5978289
4.9355321 -6.6309581 0
4.7795911 5 6.3463998
1.4561698 -5 9.7000923
-5.7514334 1.8472905 18
5 4.9303894 12.868496
-7.3095417 1.7432722 0
-4.6241379 6.1782093 18.742004
2.9257467 5 8.3047905
8 4.0503235 0.99298447
5.2378707 8 0.38180411
-7 -1.1903429 14.750622
-8 5.869637 0.17839453
-1.9413784 -8 2.2692993
-7 4.0220184 17.158934
-7.0000005 1.3355508 17.430016
5 -1.5239753 13.021675
4.184576 -7 16.215059
-2.5642843 1.6570807 17
0.71485233 -7 16.140814
5.495482 7 10.797716
3.5418725 -5 9.2789984
-0.46798944 -5 6.5060525
-1.790802 5 0.16880137
-7 6.9536686 13.174432
-4.7083826 -5 4.6997967
5 -2.0505559 9.1761494
-5.6262636 5.2774801 0
-5 -0.064529181 3.5318184
5.804318 7.9978948 10
8 3.7785187 6.2118106
-6.223855 -7 13.955539
-5 0.62736148 10.209328
-2.9173894 4.9229412 19.903057
-0.47297707 0.1007731 19.451508
3.3841062 7 15.16869
7 4.7792768 16.468796
4.7307787 -0.28350803 17
-8 -1.9423647 1.0364943
4.1822424 -7 17.424986
-1.1262811 -7 19.672293
-1.5985355 8 9.6893959
7 6.8364344 17.774361
-8 2.0565856 5.5561395
-8 3.6899862 8.5296717
2.4120629 -8 0.9889729
-0.91775548 -5 3.4659522
0.78622162 7 11.927324
-8 7.4938698 7.5539618
-2.2145834 8 0.06842196
8 -1.8911172 7.7465277
-8 4.1999192 7.7118163
-3.4312143 -4.9458861 17
-0.3705771 -4.7088618 19.364939
7 -4.5527034 17.725889
8 -0.84051704 3.3710592
2.2443297 -8 5.6939216
-5 -1.1666842 6.5126815
-8 4.0897493 3.9839139
2.6728477 -1.9780849 17
-5 4.3808246 16.587547
6.46559 -6.7298608 0
-5.0658283 -1.0960975 0
-6.4884586 8 6.6809864
-8 5.7334604 3.9002371
-5 4.4863224 3.8103878
8 2.6740556 8.3014135
5 0.35135269 7.481379
5 0.53448772 3.8500574
8 -6.4637747 5.6117926
1.3799291 -5.5904112 19.681053
5.2281036 -1.4000225 19
-4.3230319 7 13.424267
-2.5781517 -8 1.1717932
5 2.9774084 11.76969
7 -2.1845918 17.878664
-3.3317244 -7 16.350632
1.8985367 8 4.7109804
6.820241 -7 10.554562
0.34025779 -4.4133101 18.883287
-1.2082253 -8 5.4558401
-6.585032 -3.6700053 0
8 5.5459328 6.6213522
8 -2.4313459 4.5071435
7.7182527 8 2.7398677
8 7.8598728 2.4165919
-8 -0.19644284 6.0976944
-5.0654678 7 12.730005
-7.3639994 8 1.1981887
-5.1908417 0.13685423 0
-7 -5.9261956 10.22845
5 -0.23502588 8.5164175
-3.5115309 7.4985132 10
2.0875885 6.3253078 19.953756
8 -3.0014563 0.00067055045
8 2.207449 9.8881874
-5 0.53188682 5.2309818
-6.173564 -7 10.764352
3.0666456 7 18.325142
-7 -0.49627817 11.505987
4.9012232 -2.2544732 17
5 3.6976836 0.38924292
-0.57587266 -5 0.74199682
8 -1.4417543 4.8532701
0.72346258 5 3.3374662
-2.3158236 5 0.46856049
1.3760242 5 3.4401822
1.336596 -7.3001823 10
-8 -7.4886985 0.5337618
-4.835906 3.4933062 18.406315
-5 -2.3894572 4.3723817
8 -1.6625021 8.7607241
8 7.5146255 6.557826
2.199656 5 8.9633598
-5.9973102 7.3614445 0
-4.4865942 5 12.108044
5 -1.8302002 14.160245
-7.7462788 -5.5845799 0
-5 3.6561842 15.556975
-5.3176413 -0.60097116 0
6.8676896 6.7130828 0
5.4043384 6.8170934 0
-8 5.508729 0.47804916
0.18084699 -5 9.2196121
-6.7719822 -5.1418791 0
0.35060421 0.00035518222 18.882961
-6.1419239 8 2.8896317
-5.0000005 3.9991004 15.231606
-4.1240401 7 17.79493
-4.4583988 -7 12.179966
-1.9855001 -1.3648493 19.978035
-5.7015681 1.1617076 18
-2.1331415 8 3.1652098
7 -1.1124995 13.063564
2.5780642 1.8397055 19.984322
-7 1.5445871 13.262768
-8 1.1292644 7.5930429
-6.7957525 -5.8414693 0
0.56221461 6.9908915 0
4.1898661 8 8.360589
0.083012015 0.42733613 17
-6.6470966 -8 9.1223145
-3.367029 -3.9784977 17
5.0370622 2.4545982 19
5 1.3116826 0.33289191
1.6849647 -5 6.1319828
-4.18501 -5 0.10014135
7 -0.29170132 10.341345
-0.36210489 8 2.8672976
-5 3.2019336 2.4833918
6.5236192 1.3953829 19
-2.6069827 -7 13.5432
8 6.2513838 5.1713486
3.1407344 -5 2.6341758
-2.66471 8 6.234211
5.6495838 8 6.1083565
-7 5.7456875 15.336287
7 -2.769166 17.151226
-6.9999995 2.378861 17.442177
5.1183472 3.1469312 0
-8 0.27060574 9.872776
5 -3.0442848 10.29913
8 -6.4822173 2.7837262
5.8276119 -0.21481776 19
1.6575614 -4.1077871 19.821835
-2.6709824 -7 17.433567
5 -3.6127558 9.2534132
-1.2449684 -8 8.6609879
5 0.32094431 0.34979466
-2.4084253 5 12.376379
-4.9379964 -5 3.7879903
4.4543743 8 3.8281708
5.6479783 7 11.389126
-5 -2.1073332 8.4976215
7 2.867403 18.541124
5 4.7690048 5.0985069
7.9909348 -5.5193362 10
-4.0970483 -7 12.123558
6.2489882 3.5033743 19
-2.6438742 -2.0135121 19.954472
-4.9709978 -6.464479 18.121246
-4.1713495 -3.2638969 19.24041
3.8386045 -6.1167912 0
-5.3622551 6.4024029 0
-5 -0.84086496 8.7809181
-7 -2.7309203 13.413746
7.1602926 6.0682011 0
-5.8162994 -5.899817 0
-3.7803507 -4.4338036 17
-8 6.8543406 8.7498894
-5 4.7497592 1.8470515
5 -3.3277221 14.069939
8 7.4674253 9.0634613
-5 1.7691431 9.2135944
-6.847702 7 11.382096
1.6729435 2.1343622 19.828732
8 -3.6504517 4.3942943
-6.0059738 7 13.514887
7 -1.0584908 14.069035
-8 -2.4842148 3.2645071
6.0128994 3.4163914 19
-5.0004969 0.90442228 18.058998
-1.5580533 -8 2.0279
-8 -0.66468787 4.7938123
8 2.8951478 8.3800611
7 4.3195133 11.699283
6.265717 -8 0.086066909
-2.3084123 -7 10.784069
-4.8482876 5 2.9937716
-5.2012267 -7.3194995 0
-5 -1.2574959 0.91819185
-0.84774494 -5 11.81688
-7 6.2087765 15.754
0.80108941 6.4772329 0
-6.8405428 4.9099512 0
-8 3.8637643 8.3158379
3.9929764 5.2483225 0
1.5121441 8 7.6103473
1.9544348 -8 6.1501389
-4.944037 -0.08990097 18.178137
1.8887794 -5 1.4750221
-8 -3.4394383 0.27604252
-4.793385 -5 12.166161
-4.1261082 -0.09987855 17
4.2498055 7 12.064756
5 2.9334836 2.6644475
-5 0.38955539 10.006842
-7 -2.5015695 16.119514
0.98532712 -1.0728235 19.344257
8 -3.5768595 2.656508
-3.2140827 -5 2.1939011
5.8086519 5.3581066 19
-1.1271915 2.1115551 17
-4.327877 2.2087698 19.10384
5 4.6723804 10.305121
4.9779129 5 13.980998
-4.4764509 -5 7.5527239
-6.7220545 8 0.88183832
0.60996139 -3.1333609 18.944099
-2.4089346 -5 11.00952
-5 -4.791554 2.1111276
7 4.9575081 16.168369
5 -2.8402867 14.143487
-4.2081528 8 7.651844
0.70881081 -2.8751812 17
8 -5.9322066 7.0434027
8 0.97621977 6.458025
5.4030638 4.2602901 0
-6.3177161 7.8986731 0
7 -2.5913076 14.354573
5 0.69832134 7.9151783
5 3.6815519 1.2925689
-7 -0.84351957 12.300781
-3.5532277 5 11.824661
-0.10552689 7 11.355287
-6.6284304 -8 2.7942801
7 2.2935011 13.171393
-8 -0.015476704 8.4203777
-1.5306766 7 10.06049
5 -2.9767992 11.430624
5.0281668 -7.2672472 10
8 7.480422 3.6698191
-5.8953438 -5.252243 0
1.4496088 5 9.4320707
-8 -1.2761366 3.2342634
-7 6.6559381 14.596352
-7.7688584 -1.0073128 0
5 -1.0954106 11.329978
8 0.95606482 5.816618
3.3006027 4.7924042 17
6.546977 7.2193651 0
-4.9109025 -6.1067257 18.248058
-2.8604796 6.7351737 0
-0.078513145 8 4.6457357
-0.65278292 5 2.3184161
-2.5688007 8 0.69903433
-5 -4.6728687 12.078033
-5.524406 7 14.663141
4.0979843 -8 2.4158113
-1.4700428 -5 9.2442799
1.2707813 -5 5.2036695
-3.6971045 -4.4489555 19.581814
-8 4.5718627 5.9736838
3.9855688 -5 1.3698063
-5 -0.39146399 3.0657201
3.6903582 -7 18.310415
4.5607843 -8 4.7586961
5.0840588 8 0.12656331
5 -2.5849652 2.380193
-5.5206337 8 6.8597212
7 -6.0340309 13.969873
-7 0.4254179 15.919373
4.1680694 5 9.4858189
-5 4.9449892 0.20042151
-5 2.4480517 4.000082
1.2495484 6.6578484 19.582481
7.9999943 5.2816887 10
7 -0.7828908 18.896744
4.3335404 -5 0.58913964
3.2384388 -8 1.006696
3.8934751 -5 5.586256
0.98893547 5 3.9358115
8 -6.804245 0.54866683
7 0.61870694 17.006433
7 -0.90228176 11.158274
-3.568773 -8 3.6789501
-5 -3.5177104 10.391943
-5 -0.80524981 9.3849936
-5 1.2980878 6.2334418
-5 -1.0639887 12.036041
-4.4564328 -7 13.577244
-7 6.8209915 15.262767
1.194849 -4.4278522 19.541126
-2.9566913 -5 16.113134
3.944531 -7 13.097683
3.637548 -5 10.526834
3.3432772 0.31858015 19.776302
-3.6207619 8 4.9466715
2.4334371 -5 15.177242
3.5809135 -8 8.7774954
3.6474607 -5 12.591038
-0.69571996 -3.3296502 19.577595
-4.7200661 8 6.7366004
-7 -4.5743604 13.10921
0.42069906 7 11.397429
-5 -0.34735239 14.156736
-5.8551769 -1.8540477 18
7 -5.3329301 13.394985
5 -3.5438991 8.4507256
7 -6.4682345 13.946716
-5 -4.5317144 14.16224
4.5798264 -4.0568385 17
8 -2.0917768 1.9703137
-3.862226 2.9990163 19.489021
0.55670333 8 7.9507341
-4.6263981 -5 1.2912731
-0.70632648 -7 15.428425
-8 6.8853564 3.8596115
6.5195513 8 0.17853618
6.1653247 7 15.786488
-7 -3.4388847 16.984058
5 -4.1135144 3.6141109
-2.3839257 -5 7.0431614
0.32007313 8 6.4503927
-8 -3.0191188 6.5275679
-5 -4.0074005 13.585827
-7 -6.1616883 15.118673
-1.1217535 3.116349 19.788216
2.8199298 -5 6.3292704
0.51469588 5 2.4037952
5.6511712 -0.8415035 0
5 0.72439539 12.246281
7.0425358 8 5.6538153
5 1.2644477 6.7296386
1.673048 -3.6265163 17
7 -4.0276632 18.749826
-2.9345794 5 8.4462748
-3.8907995 1.8541665 19.472961
3.4760294 8 5.3737235
7 -4.8307295 11.132859
-4.2495394 -8 5.3624134
-0.88732839 -6.7429948 19.68606
-1.5013731 -5 8.8446732
-4.8145723 5 5.6205201
6.3029356 8 0.2180171
0.45177007 3.9142344 17
1.1951374 5 8.1294632
2.5613935 8 7.5998993
-3.7196479 -8 5.4366827
5 3.563839 6.8142591
-7 5.9525375 11.934546
-6.2232466 -8 8.5321636
6.9950204 8 3.7179387
7 -6.6050301 15.239111
1.5550666 -8 6.0945101
-7.036325 2.8733282 0
1.9421117 -7 11.250349
-0.1463089 8 3.5692072
6.820291 7 12.996296
0.15772104 -4.0752063 17
1.7092075 7 19.780155
8 -1.7994403 4.2979698
2.7875977 8 9.3460999
8 4.0340691 7.5083108
6.1361046 -7 17.467302
-4.3806319 -7 12.489953
-0.04627943 5 9.5677357
1.9814489 7 12.542089
8 7.9712276 8.428545
-0.47725999 -7 17.868732
-3.513011 8 9.4286461
-4.7835927 3.9027371 18.516705
8 -3.4769163 2.6685872
-3.0638976 -8 6.2920322
5.2096 -8 7.0600996
7.0000005 -6.3121681 15.683002
6.9854059 8 8.5401659
-3.1437888 -8 0.41312909
-4.884635 -7 17.465527
-7.8950243 0.27790761 0
8 -2.9989746 6.1689816
-1.3294593 -5.5818138 0
2.7847054 -8 5.0316167
-8 3.2264223 8.8925533
-7 0.46109617 13.293819
5 1.0307969 2.6798022
-0.76200151 3.3141813 19.615114
8 4.5826998 2.3928795
-7.113524 -7.835072 0
4.7100019 8 5.1569128
-6.8899927 -8 7.5840979
-7 -3.2625649 15.180773
-3.3821681 6.5409737 19.755926
5.574533 5.6822371 0
-8 -0.27335489 7.2892928
-5 -4.8607969 8.2059784
5.0972629 -7 13.472019
0.75556087 -8 6.7344337
7 4.7164917 11.444224
-5 -0.40517378 0.98329908
-8 6.7150393 0.0011940203
4.529716 3.6121147 19
-2.8033133 8 8.4699631
-5.6738586 8 7.8803191
1.385639 2.4757257 17
-5 -1.3285254 12.204376
-2.4807999 -5 1.9112833
-7.2963448 8 2.062108
-0.66034842 -7 10.677435
-5 2.6533911 0.53274864
-8 4.3099642 7.4750309
-8 -1.9451056 3.1848264
-0.96243364 -3.4370394 19.728575
-5 -2.1204915 12.572215
2.3150735 -7 13.138769
-2.5378563 -5 0.87357616
-5.7612705 -2.2407303 0
-0.064689636 1.0873609 17
-6.4877253 -8 4.430254
-8 4.0604572 6.4900217
5 1.2213407 15.514565
-0.83144635 7 10.61756
-0.73293442 5 14.590816
-4.8068657 -5 6.5083313
4.6464553 8 1.1847407
3.5235779 7 12.881099
-5.4871159 -2.928256 0
5 -1.1135639 13.840201
-6.2542677 8 7.0925283
3.9143333 -0.32059866 17
5 2.4388595 8.7517319
4.7977476 -7 12.02767
-4.1323438 -3.817471 17
-5 -2.7541156 7.7110624
-5 -3.2062645 2.0253177
2.240253 5 8.9365253
2.1916766 0.56197977 17
-4.4082966 -5 7.9038363
7.7764583 -3.0630155 10
1.6367705 5 11.967359
8 -0.52124023 0.14547737
-5 -4.1520705 5.0221939
5 -4.6500821 13.092459
1.9239929 -5 14.056921
4.1529894 0.34725147 17
-8 1.1467726 8.2596321
-5 -1.4442706 3.144311
-0.83847523 5 5.0060825
-1.9868666 -5 16.919071
6.2183027 -7 15.110565
-0.59206045 5 13.440947
-3.75582 -4.7542362 19.54882
-3.5813131 -4.89148 17
-8 -5.9084721 8.4553318
-4.9361453 -5 2.7663956
-1.3816047 -8 2.8284631
5 -3.0386758 9.8390369
-1.2443615 -3.797286 17
-6.0717125 7 12.038501
6.3507185 7 16.90041
-2.6528535 4.6733823 17
1.2879114 -5 0.35243565
-8 -1.7193329 3.6920021
3.5349624 -5.7024803 19.675936
-2.4323545 -8 1.6919264
0.28345668 -8 3.9543302
5 1.6097786 12.704696
7.6958456 -8 7.2661991
5 -3.0908937 3.7649035
0.97922015 -6.2094774 19.336969
7 -5.5129814 13.525669
-7 -6.338264 13.135174
4.0371647 -6.6096144 19.198172
8 -1.9724293 0.20977215
1.1950736 -7 11.157119
3.4982955 8 4.378089
5 -2.2814775 4.3489423
-5 -2.4598677 14.296003
-1.7299039 -5 0.45566547
4.004529 7 10.464419
-5 3.2923584 6.9958797
5 4.5738153 1.5838482
4.0043898 5 15.624747
-6.4257054 -1.5607815 18
-1.1658664 1.4173346 17
-1.8890486 -5 14.055781
-3.1518888 8 9.1148872
-3.5891306 -7.036232 0
-1.5054758 5.2479839 19.910997
-7 0.40734673 14.237331
5 4.3364067 12.138125
7 3.953063 11.069027
8 2.8159981 9.9767561
7 -5.7443542 14.335312
0.96316719 -5 14.025247
6.7754688 8 8.2638178
-0.24717784 -4.6512032 17
4.7264967 5 11.785511
-5.8331556 -0.33138752 18
-4.4455209 6.1624012 18.977961
5 2.5123434 13.352454
-8 6.3129125 1.3894454
7.7080364 8 3.6342955
2.0931807 8 0.73154449
8 4.0064831 5.5017624
-8 4.7199211 6.6114783
7 4.8845983 18.916655
5.9787683 -7 16.946159
1.1995425 -7 19.414984
-2.0195198 8 8.1465502
8 -1.3123534 1.3414556
5.8152046 4.14503 0
0.27078438 5 10.230061
0.31229293 5 12.356554
1.6945362 -5.5726995 0
4.2377052 -4.6143975 17
5 -1.1603615 9.3960133
5 3.2718191 9.9789448
2.8793335 8 9.3243952
-8 -6.3474102 5.7048039
5 2.9576139 8.71527
-8 0.31035197 9.473525
7 4.9637289 17.001755
-4.3076029 8 5.6823888
-0.64231956 -3.3732681 19.547367
6.0285101 -8 7.9569716
-8 -2.5491247 7.7501988
5 0.88315487 8.7631407
-8 -1.2761323 1.6950808
-2.7252059 5 5.8877206
0.79829264 -0.27390516 17
8 -7.1698394 4.2215877
-4.9832859 5.8126621 18.095316
2.4607611 5 2.5712042
5.3218579 -5.8397527 0
-7 -5.2191067 17.897995
-4.3029413 -5 13.038235
7.3327312 -8 8.4550238
-6.4029074 8 6.4749451
7.0000005 -4.7336073 13.356545
-8 2.243027 4.247683
-6.7381897 8 0.17927051
4.907515 5.6251025 0
-2.9944286 -8 1.3088423
4.9081187 7 17.073811
5 1.6515927 2.3464139
2.2753921 5 5.4697804
-7 -0.67381191 15.70833
-5 1.3615187 5.8697996
-7.0038328 8 1.2479516
-3.9696307 -7 12.650926
1.3718579 -3.3216505 19.67495
-3.5525551 1.1479666 19.66305
0.3369348 -5 5.9688101
-6.4859629 7 11.12967
-0.71033186 6.704721 0
0.82160711 -8 2.5353434
4.7233391 -4.738121 19
-7 4.0890617 16.277857
4.0909538 2.7170177 17
-8 -7.7473998 4.8033233
5 -0.80023527 6.4120765
-5.8027349 -7 12.084635
-4.9975548 4.8722153 18.065205
2.2483094 -8 1.0771224
3.2810547 8 2.9734712
-1.8409741 -5 15.889097
8 2.4862618 9.6516113
6.5373673 8 8.4154453
7 -6.2409801 18.278261
-5 3.9799521 12.260994
-5 2.3372936 14.082951
5 -0.43689823 1.0049042
4.9405737 8 6.7568102
-8 -2.5209742 4.2388639
-0.89194393 5 6.9956183
-7.9082332 4.8188491 0
1.425639 -7.2126203 10
3.5675359 -8 4.8243318
-3.8704648 -5 13.888656
2.0988364 -8 4.3201575
3.5121479 -5 10.50083
0.27389479 7 17.489252
1.96837 -7 11.646567
0.028140068 -3.859781 17
5 -4.6879606 4.4065161
6.5033464 -8 4.5536542
0.21744709 -1.7300419 18.905067
7.2140226 2.952275 0
-1.136484 -5 9.062501
-8 -0.93052721 5.4288316
0.69302905 7.0000005 18.224564
5 -4.1246452 12.338575
6.5144939 6.9306402 0
-0.023769442 0.72016877 19.060446
-5 0.38298482 12.040359
5 3.3869927 15.011186
5.6358232 4.991807 19
-0.48271087 7 19.175001
-5 -3.6692991 5.1844864
-3.5264311 5 7.8937182
-5 -2.7952185 12.616575
3.9762266 -5 16.978363
0.19565105 5 9.0125704
6.5854945 7.6193027 10
5 3.8432589 7.5919285
-2.7742033 -6.9999995 16.362801
8 -7.908114 3.2206564
5 4.7855577 16.040972
-2.8665538 -5 3.9778414
2.2045703 5 10.596161
8 -6.9723768 0.43499458
5 0.820548 14.381629
5 2.4016147 0.38898236
2.457587 -5 2.6906011
7 1.4199817 18.372049
0.17718333 -0.24682015 18.917852
1.1860487 8 9.5868177
-7.598794 -5.6058979 0
4.0362329 6.2851562 0
1.6523747 -3.9078715 17
7 5.0408564 16.501705
-2.9836032 -8 7.0555363
0.064146519 5 7.5227232
5 2.6845658 16.08877
-4.1903877 1.3266854 19.223799
5 -4.4266005 9.4164915
-3.6986275 8 4.7713361
3.1727586 -8 8.7794323
-2.9335217 -4.5978904 17
7 -4.3397102 10.424047
5.0255957 -1.8028271 0
-1.6381403 -8 7.7276859
-3.2772923 -5 6.1896825
5 -2.3445444 7.2255979
-5 4.9427414 12.471622
2.3581793 5 15.740428
1.3499684 -3.0595813 19.658401
-7.44526 3.1752629 0
7 -0.90465379 12.481981
-5.6333752 -3.0262938 0
6.6078539 6.9999995 11.758192
2.1735444 7 16.63059
1.9321637 3.7856965 17
2.8346486 -5 9.5165739
8 -6.3267174 0.41902089
7.7708378 3.1946692 0
-5 -0.92351073 1.8070827
5.1785717 -7 10.696733
1.8145108 -3.1659641 17
-5 -2.0346272 7.7678504
6.3194933 -1.0000367 0
7 4.4562931 11.793854
-3.5329285 8 2.0547776
8 -4.9264755 6.2464743
0.19408822 -5 3.4266956
-8 -4.8726172 9.6513596
8 3.4353256 0.0087449988
4.2491598 -5 0.78258371
-7.1789455 8 5.2075052
3.7714083 3.1281424 19.486122
1.8370867 6.9342346 0
-7 0.092396736 17.745319
5 -0.38677311 11.29868
3.6665432 -5.0000005 2.0257401
-8 4.3246155 4.3341527
3.4771187 -7 16.350754
-7 -5.7793665 16.576653
-7 -6.9420123 15.546646
-5 4.2201118 2.9046402
2.5943465 -8 4.4912658
8 7.21591 2.3351519
1.6933484 -5 11.427759
5 -0.45820189 0.43297696
7 2.4866617 16.625977
7 -4.8755636 11.805247
-5.1912336 -8 5.2215891
0.4954887 -5 9.0480776
-1.4404784 5 0.25135481
3.6986661 4.9999995 0.74218476
4.0420327 -5 12.89123
-1.7326488 -7.4798241 10
-5.7494097 -7 12.64658
-2.8521082 3.7092521 19.923721
1.0860254 5 9.315053
-7 5.230876 13.673683
-3.3636858 -5 15.272457
-6.6012554 -7 16.100441
-0.17766963 -5.7107954 19.195568
4.2886086 5 7.2632051
2.9199028 7 10.4936
5 -3.7889745 2.9792333
-3.6574843 -0.099521399 17
-5 3.0505521 7.6658311
7 -1.9159157 13.089224
-7.4149194 -4.6289954 10
5 -1.3178066 10.641163
2.2634366 -5 2.1276224
-3.5692916 -7 16.674152
-7 2.604332 13.986305
-1.1587709 -5 10.672565
3.7511368 -1.9722786 17
